ply
format ascii 1.0
element vertex 1352
property float x
property float y
property float z
property uchar diffuse_red
property uchar diffuse_green
property uchar diffuse_blue
end_header
-1.187610 1.169826 18.882238 0 0 0
-1.187610 1.169826 18.882238 0 0 0
-1.138495 1.421203 18.955818 0 0 0
-0.938502 -1.979117 18.301226 0 0 0
-0.938300 -0.771902 18.385568 0 0 0
-0.938300 -0.771902 18.385568 0 0 0
-0.984125 -0.392971 18.321105 0 0 0
-0.600968 -2.101515 18.048356 0 0 0
-0.648104 -1.187596 18.213515 0 0 0
-0.736579 -1.094457 18.086121 0 0 0
-0.814275 1.649340 18.582372 0 0 0
-0.814275 1.649340 18.582372 0 0 0
-3.988934 2.682828 15.251531 0 0 0
-2.115154 1.926623 17.163105 0 0 0
-2.045449 1.837695 17.174880 0 0 0
-3.573076 2.399094 15.577895 0 0 0
-2.099921 2.383176 17.147445 0 0 0
-0.821445 1.091676 18.163260 0 0 0
-1.463836 -0.455173 16.948631 0 0 0
-0.563968 1.605435 18.407521 0 0 0
-1.553377 -0.337455 16.751474 0 0 0
-1.768239 1.822198 16.913502 0 0 0
-4.032254 2.950628 14.657416 0 0 0
-2.174582 2.416111 16.490819 0 0 0
-1.478843 0.312930 16.617082 0 0 0
-1.045399 -1.058237 16.722473 0 0 0
-3.940437 3.250601 14.610334 0 0 0
0.099591 -1.918855 17.499320 0 0 0
-0.140293 2.101064 18.139338 0 0 0
-3.592382 2.783139 14.702501 0 0 0
-1.275260 -0.691321 16.220563 0 0 0
-3.537312 2.798045 14.625194 0 0 0
-1.160359 -0.839957 16.225633 0 0 0
-2.404692 2.554077 15.671187 0 0 0
-0.107590 1.944156 17.508509 0 0 0
-1.134602 0.616702 16.191568 0 0 0
-0.469882 -1.270177 16.398021 0 0 0
-0.006744 1.992845 17.339475 0 0 0
-1.012375 0.394850 15.868956 0 0 0
-0.822992 -0.802703 15.759634 0 0 0
0.124749 1.884884 17.027642 0 0 0
0.124749 1.884884 17.027642 0 0 0
-2.511407 2.849113 14.753536 0 0 0
-2.431151 2.918539 14.727731 0 0 0
-0.732366 0.536975 15.778977 0 0 0
-0.768532 0.110060 15.591451 0 0 0
-0.359186 1.070821 16.139770 0 0 0
-3.006161 3.202741 14.167286 0 0 0
-0.720673 0.030122 15.573885 0 0 0
-0.720673 0.030122 15.573885 0 0 0
-0.628013 0.543956 15.690097 0 0 0
-3.152569 3.400232 13.976670 0 0 0
-0.875976 -1.305677 15.009743 0 0 0
-0.875976 -1.305677 15.009743 0 0 0
-0.539108 -0.152359 15.468038 0 0 0
-2.105387 2.272491 14.422026 0 0 0
1.390276 -1.404370 16.657706 0 0 0
1.491416 -1.586528 16.574380 0 0 0
1.541250 -1.756247 16.441517 0 0 0
-1.904707 2.317857 14.104193 0 0 0
1.803518 -1.681449 16.290992 0 0 0
2.012440 -1.172892 16.230373 0 0 0
2.110636 -1.620751 16.192148 0 0 0
-1.467791 2.746635 14.087954 0 0 0
2.538367 -1.289116 16.230194 0 0 0
-1.796258 3.458079 13.140536 0 0 0
-1.559812 3.935224 13.014112 0 0 0
43.061976 0.696430 38.663188 0 0 0
6.889736 -4.871642 16.049894 0 0 0
-6.992181 0.044817 8.435505 0 0 0
24.867381 7.867513 26.293525 0 0 0
27.827887 8.381516 26.180183 0 0 0
0.531007 5.703131 11.351233 0 0 0
-1.557612 3.851853 9.442785 0 0 0
3.934714 7.237530 11.442177 0 0 0
155.350624 -28.610149 55.018536 0 0 0
-7.201107 -2.467102 21.344829 0 0 0
-8.437643 -2.402573 16.733498 0 0 0
-9.901174 1.040195 12.910489 0 0 0
-10.021048 -2.204937 10.097994 0 0 0
-2.979443 -2.963709 25.478021 0 0 0
21.528426 12.972866 78.273308 0 0 0
-10.718719 -0.913549 9.070263 0 0 0
-10.127524 -1.615090 9.862615 0 0 0
10.958531 0.470963 44.291753 0 0 0
11.845789 -2.219753 43.864695 0 0 0
12.333427 -0.881693 42.993030 0 0 0
-1.303950 -2.324442 19.021326 0 0 0
-1.532355 1.635810 19.720944 0 0 0
-4.575205 2.739227 15.637695 0 0 0
-1.441746 0.911247 18.973828 0 0 0
-0.998367 -0.840985 18.490384 0 0 0
-4.572806 3.058465 15.157163 0 0 0
-1.105461 1.385549 18.796290 0 0 0
-0.766535 -1.899598 18.231718 0 0 0
-1.005575 -0.053336 18.394242 0 0 0
-1.007245 0.550711 18.501807 0 0 0
-1.007245 0.550711 18.501807 0 0 0
-3.840953 2.424858 15.591167 0 0 0
-3.936659 2.526114 15.463747 0 0 0
-3.704317 2.367932 15.630546 0 0 0
-3.947005 2.621775 15.252682 0 0 0
-0.457887 -1.335336 18.193967 0 0 0
-3.535321 2.528189 15.466054 0 0 0
-0.567959 1.602912 18.403580 0 0 0
-0.222961 -1.951640 17.751160 0 0 0
-1.556360 -0.085115 16.632540 0 0 0
-0.294000 -1.582145 17.376972 0 0 0
-2.261793 2.513117 16.193523 0 0 0
-1.214407 -0.921045 16.458315 0 0 0
-1.936176 2.267759 16.342238 0 0 0
-1.410406 -0.408342 16.232253 0 0 0
-1.410406 -0.408342 16.232253 0 0 0
-0.905751 -1.115942 16.320767 0 0 0
-2.455320 2.899076 15.444638 0 0 0
-0.691374 -1.131538 16.147429 0 0 0
-0.459404 -1.287948 16.196742 0 0 0
-2.645919 2.910575 14.859246 0 0 0
-0.987002 0.400200 15.886954 0 0 0
0.870887 -1.595927 17.055018 0 0 0
-0.520120 -1.001426 15.853569 0 0 0
-0.356198 -1.163904 15.872374 0 0 0
-2.308551 2.703188 14.731100 0 0 0
-0.407289 -0.900801 15.670531 0 0 0
0.328620 1.899351 16.880937 0 0 0
-3.167819 3.391891 13.966337 0 0 0
1.185665 -1.596307 16.829367 0 0 0
0.510132 1.843570 16.811245 0 0 0
-3.048405 3.279288 13.944002 0 0 0
-0.412871 0.843741 15.763549 0 0 0
-0.255791 -0.223654 15.423818 0 0 0
-2.913235 3.180181 13.807635 0 0 0
-2.173303 2.317907 14.172666 0 0 0
-0.111903 0.543704 15.578566 0 0 0
1.633758 -1.934991 16.267836 0 0 0
-1.971316 2.384429 14.025591 0 0 0
1.932143 -1.544319 16.236739 0 0 0
2.026170 -0.982580 16.175374 0 0 0
25.162264 19.673082 35.958351 0 0 0
-1.919624 3.215098 13.168655 0 0 0
3.454689 0.491864 9.595003 0 0 0
-7.110804 -2.580017 21.503953 0 0 0
-10.340422 -0.380452 10.044865 0 0 0
9.501827 -1.933889 49.880788 0 0 0
11.915851 -1.840326 50.865296 0 0 0
11.269603 -8.955615 46.473484 0 0 0
11.661480 -7.752871 45.408486 0 0 0
14.258595 -2.468116 43.383002 0 0 0
-8.758123 -3.252343 9.380527 0 0 0
-1.346060 -2.199134 19.041081 0 0 0
-1.346060 -2.199134 19.041081 0 0 0
-1.488166 1.281261 19.690385 0 0 0
-4.638143 2.622201 15.169697 0 0 0
-1.074416 -0.431015 18.635013 0 0 0
-1.041386 0.112431 18.553651 0 0 0
-1.041386 0.112431 18.553651 0 0 0
-2.179449 1.551757 17.505503 0 0 0
-0.750035 -2.046251 18.199507 0 0 0
-2.155940 1.730729 17.351704 0 0 0
-0.989572 0.577541 18.328184 0 0 0
-0.601478 -2.003530 17.994137 0 0 0
-2.282440 1.610165 16.915903 0 0 0
-2.098351 1.545376 17.086696 0 0 0
19.658116 -8.100668 38.257199 0 0 0
-0.553412 1.508809 18.262680 0 0 0
-1.525730 0.053139 16.782102 0 0 0
-0.306777 -1.639819 17.614317 0 0 0
-1.543528 0.141728 16.635018 0 0 0
-1.796325 1.950624 16.763247 0 0 0
19.883286 -9.348827 36.461485 0 0 0
-1.554633 1.951408 16.775257 0 0 0
-0.474269 1.601291 17.714402 0 0 0
-1.033158 0.960253 16.872421 0 0 0
21.661137 -3.339081 37.870158 0 0 0
-1.182727 0.471560 16.144794 0 0 0
-2.117894 2.704143 15.657470 0 0 0
-0.098819 2.048764 17.449181 0 0 0
-1.147742 -0.568487 15.800263 0 0 0
8.996699 -2.228656 25.148107 0 0 0
-1.169720 0.150343 15.912814 0 0 0
-0.723174 -0.716492 15.702970 0 0 0
-0.696117 -0.428876 15.559026 0 0 0
0.478949 1.942500 16.718032 0 0 0
1.698952 -1.263311 16.605660 0 0 0
1.749034 -1.366264 16.452569 0 0 0
1.793087 -1.010595 16.356417 0 0 0
24.734774 -7.999793 32.215747 0 0 0
-5.176855 2.757428 10.605501 0 0 0
0.027785 6.192450 14.597052 0 0 0
31.353061 -6.148974 30.720579 0 0 0
14.282512 6.454004 21.942407 0 0 0
-3.570479 -0.993265 9.995046 0 0 0
-3.801550 3.152272 10.242904 0 0 0
-4.862215 2.403478 9.555812 0 0 0
34.352704 -0.810279 28.296797 0 0 0
28.770542 2.452268 23.219139 0 0 0
30.445621 8.971232 24.717121 0 0 0
-0.509301 4.539287 9.717720 0 0 0
3.145175 5.108483 10.305933 0 0 0
0.270467 4.759621 9.397720 0 0 0
-6.144158 -3.302370 22.200016 0 0 0
-6.064511 1.552520 24.833350 0 0 0
9.199996 -1.760463 50.924172 0 0 0
8.710159 0.057025 44.805524 0 0 0
11.511687 -5.029655 47.443552 0 0 0
11.134249 -6.681885 45.905908 0 0 0
12.237584 -9.803713 44.667042 0 0 0
13.786756 -3.154979 44.754227 0 0 0
13.585464 -4.129310 44.084927 0 0 0
13.642790 -4.670018 41.184440 0 0 0
0.689581 -2.694300 22.657874 0 0 0
-5.408701 3.107881 15.664688 0 0 0
-1.328887 -2.112300 19.330971 0 0 0
16.800541 -7.784009 41.248035 0 0 0
-12.466896 -2.028366 6.659790 0 0 0
18.740031 -6.822395 39.834148 0 0 0
-0.954916 -0.212363 18.248674 0 0 0
-2.225960 1.632043 16.966387 0 0 0
-1.761852 2.892608 17.695484 0 0 0
-0.545178 -1.356738 17.803006 0 0 0
20.841303 -11.066742 38.551019 0 0 0
-1.492438 -0.554420 16.713584 0 0 0
-1.242624 0.910013 17.094627 0 0 0
-1.525637 2.119936 16.629053 0 0 0
-1.122439 -0.909739 16.237358 0 0 0
-0.893320 1.115912 16.571179 0 0 0
-1.096871 -0.438514 15.791922 0 0 0
-0.654651 -1.047387 15.948436 0 0 0
-0.580657 -0.935189 15.827523 0 0 0
0.950310 -1.735811 16.970740 0 0 0
0.203697 1.763639 16.987298 0 0 0
-2.939859 2.959626 13.974828 0 0 0
23.060858 -9.103811 33.913823 0 0 0
24.126818 -9.961777 34.301162 0 0 0
25.858838 -4.447088 34.262622 0 0 0
27.211006 -5.376374 33.295463 0 0 0
28.229492 -5.286203 32.399297 0 0 0
27.472338 -8.068398 30.107608 0 0 0
-0.790947 4.190042 13.029325 0 0 0
28.855274 -10.074489 29.148766 0 0 0
30.014686 -10.953798 28.400050 0 0 0
31.520389 -8.131692 29.430526 0 0 0
4.384724 4.889173 14.673582 0 0 0
32.452411 -6.730394 27.815284 0 0 0
34.694356 7.722699 27.706418 0 0 0
39.008674 -5.368463 25.961321 0 0 0
29.633478 8.936633 23.180500 0 0 0
29.633478 8.936633 23.180500 0 0 0
39.545702 -8.168937 25.073984 0 0 0
40.176275 4.459360 25.807593 0 0 0
39.150830 8.603522 23.401861 0 0 0
50.971010 5.723747 27.016165 0 0 0
53.511970 6.558566 23.820096 0 0 0
-7.358028 -2.965344 20.092656 0 0 0
-5.073824 2.012839 27.125543 0 0 0
-11.286334 -1.851093 7.602603 0 0 0
7.629921 -8.065179 44.760967 0 0 0
8.652318 -3.172820 47.919096 0 0 0
11.156317 -3.934799 47.016778 0 0 0
11.649068 -11.302024 44.334943 0 0 0
10.862054 -6.304979 44.568188 0 0 0
12.055609 -9.758732 44.397333 0 0 0
11.857366 -6.661178 44.171440 0 0 0
13.770058 -12.723200 42.510706 0 0 0
14.530461 -3.834898 44.492495 0 0 0
16.903502 -3.465243 47.065290 0 0 0
-3.476532 1.848374 18.314979 0 0 0
15.776321 -11.397184 38.824834 0 0 0
-1.110038 -1.579935 18.530165 0 0 0
-1.279209 0.972715 18.934904 0 0 0
-4.144545 2.640827 15.743127 0 0 0
-1.094175 -0.749893 18.542097 0 0 0
18.369342 -6.280073 40.390045 0 0 0
-4.599149 2.721285 15.065423 0 0 0
-4.599149 2.721285 15.065423 0 0 0
-4.440298 2.753847 14.934344 0 0 0
-4.440298 2.753847 14.934344 0 0 0
-0.949742 -0.468913 17.863222 0 0 0
19.183982 -7.563564 38.484718 0 0 0
-0.744167 1.222101 18.396334 0 0 0
-4.991500 0.488901 13.286715 0 0 0
-0.438620 1.681709 18.114964 0 0 0
20.656618 -5.356948 38.530055 0 0 0
-1.424256 -0.589095 16.396862 0 0 0
0.027427 -1.848720 17.482943 0 0 0
21.079382 -8.311418 37.417482 0 0 0
-3.639242 2.809989 14.610325 0 0 0
-1.978937 2.145724 16.109954 0 0 0
-1.243083 -0.632373 16.121635 0 0 0
-10.311838 -1.027585 7.282869 0 0 0
21.732875 -8.863857 36.011538 0 0 0
-1.027990 -0.650362 15.870555 0 0 0
-0.852250 0.909891 16.222577 0 0 0
0.608730 -1.488813 17.007107 0 0 0
21.816531 -10.115501 34.646381 0 0 0
-0.607393 -0.935401 15.810109 0 0 0
22.250926 -10.822843 34.798538 0 0 0
-10.169700 -0.973168 7.289232 0 0 0
21.128761 -6.663370 33.712366 0 0 0
-0.352437 -0.684706 15.538362 0 0 0
0.877211 -0.703543 15.892802 0 0 0
25.043140 -10.250823 32.319186 0 0 0
25.005333 -10.282636 31.467710 0 0 0
25.190630 -10.544231 29.293612 0 0 0
29.581853 -4.691275 32.785271 0 0 0
10.692087 -0.128051 19.566917 0 0 0
29.666542 -6.040748 27.892543 0 0 0
33.100921 -7.503104 28.554919 0 0 0
34.815967 1.790229 29.787347 0 0 0
38.527854 -6.586117 28.944217 0 0 0
35.635806 -7.564989 25.960902 0 0 0
38.901677 -5.367611 25.921606 0 0 0
38.511002 -7.064783 24.678903 0 0 0
42.344811 -5.739805 24.292099 0 0 0
48.655249 -12.353053 24.688765 0 0 0
49.234076 -2.864379 25.337450 0 0 0
47.347801 -5.995717 22.811910 0 0 0
52.357470 -0.088850 23.540013 0 0 0
-7.190767 -3.364659 20.254197 0 0 0
7.392782 -4.154296 46.540080 0 0 0
10.792578 -2.860490 50.659925 0 0 0
12.245456 -13.876056 45.707495 0 0 0
10.798574 -7.140881 45.496358 0 0 0
11.172006 -10.775329 44.435615 0 0 0
-0.554050 3.310971 26.290826 0 0 0
13.737619 -7.517192 46.191493 0 0 0
-4.647217 2.686082 18.456253 0 0 0
-3.157977 3.394533 19.760333 0 0 0
-1.496755 -2.869376 19.077917 0 0 0
-1.385833 1.265048 19.073983 0 0 0
-1.299382 0.683923 18.947242 0 0 0
-2.693499 1.930143 17.159442 0 0 0
-0.757844 -2.545070 17.604578 0 0 0
-1.340589 -0.040113 17.558394 0 0 0
18.656346 -11.150961 35.994856 0 0 0
-2.037539 2.273412 16.793144 0 0 0
-5.610404 3.222594 13.183211 0 0 0
18.903914 -12.450745 35.948701 0 0 0
19.605138 -10.217327 36.941475 0 0 0
18.765415 -9.393848 36.037761 0 0 0
-2.175790 2.246047 16.246935 0 0 0
20.835214 -5.416809 36.589509 0 0 0
-1.241538 -0.319891 16.016510 0 0 0
-1.101849 0.287787 16.017509 0 0 0
25.961832 -6.875235 38.507348 0 0 0
-3.101654 3.088537 14.047897 0 0 0
-2.820537 3.168657 13.927217 0 0 0
-2.261419 2.919369 14.224255 0 0 0
-2.817403 3.324018 13.716558 0 0 0
-2.817403 3.324018 13.716558 0 0 0
1.773040 -0.588077 16.275354 0 0 0
-1.864030 3.523486 13.234313 0 0 0
28.013292 -4.562263 29.811062 0 0 0
3.986575 5.024559 14.620113 0 0 0
1.611682 4.576651 12.485287 0 0 0
1.611682 4.576651 12.485287 0 0 0
34.108330 -9.421740 25.805764 0 0 0
4.568980 5.340212 13.587182 0 0 0
1.423200 4.395931 11.895281 0 0 0
38.497519 -4.881274 27.297205 0 0 0
40.092918 -4.861910 26.756725 0 0 0
3.314301 4.809956 11.907022 0 0 0
40.156304 -8.730385 24.554775 0 0 0
8.459477 4.772027 13.595428 0 0 0
43.885015 8.994317 24.029261 0 0 0
50.316665 1.061002 23.348286 0 0 0
13.023103 -5.976045 50.827263 0 0 0
11.866463 -10.305875 45.236776 0 0 0
12.438688 -10.929392 44.316117 0 0 0
14.098606 -11.211006 42.975995 0 0 0
15.649173 -10.216420 41.769681 0 0 0
-1.281308 0.116815 18.849338 0 0 0
-1.945186 2.048074 17.046879 0 0 0
-1.945186 2.048074 17.046879 0 0 0
-0.361026 1.929072 17.743663 0 0 0
-2.747888 2.942633 15.382198 0 0 0
20.953035 -9.614193 35.574324 0 0 0
-3.296941 3.233299 14.181426 0 0 0
-3.296941 3.233299 14.181426 0 0 0
-1.351118 2.625156 15.741297 0 0 0
-0.567544 -0.239582 15.490201 0 0 0
-2.196923 2.932449 14.646056 0 0 0
22.387054 -11.900539 32.741219 0 0 0
24.861309 -8.608727 34.986959 0 0 0
-1.301073 3.343890 13.317610 0 0 0
28.174767 -10.243748 30.036579 0 0 0
36.979378 -0.320297 32.196569 0 0 0
32.706852 -8.248308 28.733107 0 0 0
33.077064 0.811364 29.057802 0 0 0
15.364138 6.453160 20.230776 0 0 0
6.137859 4.855909 14.876064 0 0 0
36.121365 -8.151487 27.660116 0 0 0
46.140479 -8.194250 22.171904 0 0 0
1.041690 4.536929 9.584435 0 0 0
131.427124 46.470279 51.564307 0 0 0
57.965792 1.127228 25.313820 0 0 0
-7.885309 3.515283 21.719569 0 0 0
-6.613973 -2.241900 15.302736 0 0 0
12.870466 -11.092699 44.918465 0 0 0
0.822371 -2.384445 21.074958 0 0 0
-4.409542 2.647877 15.503021 0 0 0
-3.956163 2.498188 15.934014 0 0 0
-3.300148 2.395085 16.537382 0 0 0
-3.300148 2.395085 16.537382 0 0 0
-3.529468 2.571576 15.355387 0 0 0
0.123131 -1.632845 17.029157 0 0 0
24.146984 -9.980020 34.712951 0 0 0
35.046002 1.070764 31.413811 0 0 0
37.141414 -8.296383 28.081602 0 0 0
40.920190 9.945278 24.509882 0 0 0
-2.492309 2.226920 17.083809 0 0 0
-2.469859 2.723355 15.529826 0 0 0
-1.287639 0.086262 16.117358 0 0 0
-2.069852 2.360218 15.783201 0 0 0
24.785752 -8.886578 32.762511 0 0 0
-1.730178 3.650692 13.135141 0 0 0
12.723725 -8.514196 46.386319 0 0 0
18.661195 -12.022986 36.043013 0 0 0
-1.319574 0.478868 17.029272 0 0 0
0.159249 -0.943421 16.045683 0 0 0
30.267207 10.412870 26.485919 0 0 0
-7.059152 4.066908 23.716376 0 0 0
1.564854 -1.280805 16.356599 0 0 0
33.817808 -6.859909 28.595966 0 0 0
33.575670 -8.840369 27.199938 0 0 0
39.478964 -3.782399 26.965959 0 0 0
-3.273664 -7.497588 26.710295 0 0 0
0.718178 1.979259 17.071269 0 0 0
-1.500980 3.621100 14.447835 0 0 0
1.196413 2.435804 19.365866 0 0 0
5.952904 1.916372 16.634730 0 0 0
35.402810 -8.276317 25.743377 0 0 0
-4.188280 3.081658 21.964225 0 0 0
-13.598257 -2.497282 8.124380 0 0 0
-1.280721 -1.240129 19.500487 0 0 0
-1.394968 -1.639758 19.260385 0 0 0
-1.420807 1.031294 19.864937 0 0 0
-1.392190 -0.328150 19.519817 0 0 0
-1.510288 -1.648788 19.049163 0 0 0
-1.513386 0.372293 19.501126 0 0 0
-1.640891 0.063282 19.201299 0 0 0
-1.709762 1.685383 19.502432 0 0 0
-1.545484 -1.404044 18.895302 0 0 0
-1.523492 -1.653437 18.840968 0 0 0
-1.578598 0.007132 19.184662 0 0 0
-1.612635 0.575493 19.282362 0 0 0
-1.761790 2.617685 19.622125 0 0 0
-1.598740 -0.409608 19.033155 0 0 0
-1.598740 -0.409608 19.033155 0 0 0
-1.715108 2.058699 19.514562 0 0 0
-1.743949 2.385951 19.547243 0 0 0
-2.255158 3.291700 19.242816 0 0 0
-1.461805 -2.010378 18.684486 0 0 0
-1.454225 -1.469164 18.820951 0 0 0
-1.507646 -1.031923 18.878809 0 0 0
-1.545910 -0.368603 18.984503 0 0 0
-1.541738 -0.070076 19.053106 0 0 0
-1.543892 0.164945 19.106737 0 0 0
-1.561441 0.369530 19.140729 0 0 0
-1.527838 0.231152 19.121103 0 0 0
-1.696743 2.260008 19.452618 0 0 0
-1.714077 2.351531 19.461378 0 0 0
-1.638977 1.387384 19.280115 0 0 0
-1.739675 2.721165 19.487693 0 0 0
-1.419616 -2.054639 18.634563 0 0 0
-1.458526 -1.022984 18.851383 0 0 0
-1.461014 -0.831515 18.884335 0 0 0
-1.500116 0.254622 19.079557 0 0 0
-1.500116 0.254622 19.079557 0 0 0
-1.510834 0.331988 19.089700 0 0 0
-1.510834 0.331988 19.089700 0 0 0
-1.553692 1.346956 19.271567 0 0 0
-1.553692 1.346956 19.271567 0 0 0
-1.387866 -1.493746 18.711939 0 0 0
-1.406759 -0.397900 18.953882 0 0 0
-1.348749 -1.802763 18.663581 0 0 0
-1.452560 -0.037890 18.990726 0 0 0
-1.497784 0.989018 19.163887 0 0 0
-1.312690 -1.185755 18.758392 0 0 0
-1.312690 -1.185755 18.758392 0 0 0
-1.349888 -0.012818 18.936702 0 0 0
-1.349888 -0.012818 18.936702 0 0 0
-1.406586 0.659383 19.045503 0 0 0
-1.406586 0.659383 19.045503 0 0 0
-1.289375 -0.979870 18.739532 0 0 0
-1.328431 0.153702 18.945202 0 0 0
-1.328431 0.153702 18.945202 0 0 0
-1.311196 -0.386859 18.810863 0 0 0
-1.416328 1.196795 19.072685 0 0 0
-1.416328 1.196795 19.072685 0 0 0
-1.293402 1.330016 19.222053 0 0 0
-1.262073 -1.496963 18.576703 0 0 0
-1.285037 -0.197286 18.832146 0 0 0
-1.395762 1.600200 19.137398 0 0 0
-1.395762 1.600200 19.137398 0 0 0
-13.182166 -2.657358 8.141077 0 0 0
-1.148945 -1.730405 18.517964 0 0 0
-1.223867 -0.536031 18.721852 0 0 0
-1.223867 -0.536031 18.721852 0 0 0
-10.605637 -1.419371 10.037483 0 0 0
-1.144150 -0.917829 18.655426 0 0 0
-3.331785 2.644761 17.432829 0 0 0
-1.180477 0.846475 18.954826 0 0 0
-1.180477 0.846475 18.954826 0 0 0
-1.101310 -1.054450 18.567857 0 0 0
-1.101310 -1.054450 18.567857 0 0 0
-1.074709 -1.566831 18.469038 0 0 0
-12.811519 -2.503686 8.037515 0 0 0
-1.059517 -0.812525 18.598849 0 0 0
-1.153258 1.376172 18.981677 0 0 0
-1.088505 0.845052 18.880247 0 0 0
-0.973798 -1.579517 18.398936 0 0 0
-2.569189 1.650142 17.645035 0 0 0
-0.895217 -2.163245 18.260139 0 0 0
-0.936468 -0.945285 18.469264 0 0 0
-5.251122 2.341153 15.352903 0 0 0
-2.975142 1.842807 17.228426 0 0 0
-1.094541 0.251583 18.523675 0 0 0
-5.144908 2.352801 15.424764 0 0 0
-1.074548 0.215520 18.464845 0 0 0
-0.762093 -1.752497 18.243791 0 0 0
-1.056675 0.119864 18.416440 0 0 0
-0.790243 -1.696022 18.228226 0 0 0
-3.049504 2.320367 17.151598 0 0 0
-1.005669 0.068375 18.379190 0 0 0
-12.545942 -1.959187 8.070014 0 0 0
-0.688238 -1.172082 18.340312 0 0 0
-0.964186 0.181402 18.326576 0 0 0
-5.193365 2.824496 15.275472 0 0 0
-0.852301 1.599461 18.705704 0 0 0
-0.771481 1.779029 18.766598 0 0 0
-0.805613 1.004921 18.493801 0 0 0
-0.712115 1.616698 18.673422 0 0 0
-0.757646 1.293564 18.559648 0 0 0
-2.479214 1.812618 17.218690 0 0 0
-2.958860 2.375777 16.933604 0 0 0
-1.001589 0.188427 18.097799 0 0 0
-3.908598 2.249534 16.087235 0 0 0
-2.210697 1.622383 17.342097 0 0 0
-0.961169 0.417104 18.084941 0 0 0
-2.310874 2.650914 17.424841 0 0 0
-0.724368 -1.100306 17.918801 0 0 0
-1.488947 -0.377019 17.279804 0 0 0
-1.471475 0.055476 17.379601 0 0 0
-1.214109 0.532108 17.664480 0 0 0
-1.390899 0.402256 17.454645 0 0 0
-0.281597 -2.041707 17.826986 0 0 0
-1.391183 0.408476 17.337678 0 0 0
-1.478942 -0.548840 17.065451 0 0 0
-1.444707 -0.654732 17.052967 0 0 0
-1.368506 0.509493 17.314435 0 0 0
-1.368506 0.509493 17.314435 0 0 0
-3.974293 2.362528 15.616010 0 0 0
-3.974293 2.362528 15.616010 0 0 0
-0.716683 1.333328 17.981429 0 0 0
-1.496804 0.044614 16.999726 0 0 0
-2.109747 2.334718 16.964325 0 0 0
-9.792005 -1.140209 10.452390 0 0 0
-4.816869 3.015594 14.966598 0 0 0
-1.501966 -0.605768 16.793866 0 0 0
-1.501966 -0.605768 16.793866 0 0 0
-4.091510 2.470402 15.305911 0 0 0
-3.970072 2.411957 15.377349 0 0 0
0.069637 -1.978278 17.613960 0 0 0
-4.101226 2.498058 15.272477 0 0 0
0.108562 -1.922429 17.578464 0 0 0
-4.655356 2.524503 14.789289 0 0 0
-5.009032 2.577389 14.512517 0 0 0
-1.555345 -0.381194 16.558964 0 0 0
-1.564725 -0.195610 16.582372 0 0 0
-3.800899 2.436007 15.370668 0 0 0
-4.542109 2.835446 14.827359 0 0 0
-1.528224 0.226074 16.559562 0 0 0
0.162118 2.125884 18.189318 0 0 0
0.319708 -1.927136 17.501931 0 0 0
-1.432664 -0.549052 16.422956 0 0 0
-1.488627 0.235593 16.528177 0 0 0
-1.519650 0.021728 16.461823 0 0 0
-1.027946 1.126889 17.043719 0 0 0
-4.568095 2.572954 14.659991 0 0 0
-4.491257 2.574638 14.684735 0 0 0
-1.499223 -0.144688 16.352643 0 0 0
-4.034275 2.578539 15.005505 0 0 0
-4.053906 2.610623 14.972859 0 0 0
-0.964150 2.102673 17.152920 0 0 0
-2.183075 2.280235 16.285286 0 0 0
-1.448677 -0.394561 16.289616 0 0 0
-4.145238 2.627609 14.880481 0 0 0
-0.824738 1.262341 17.065950 0 0 0
-0.057320 -1.539178 17.056773 0 0 0
-1.294623 -0.760547 16.296248 0 0 0
-0.044618 -1.790468 16.948018 0 0 0
-1.440163 -0.001722 16.266127 0 0 0
-4.307092 2.632170 14.670708 0 0 0
-1.400216 -0.339401 16.205012 0 0 0
-1.400216 -0.339401 16.205012 0 0 0
-1.406610 -0.173724 16.233712 0 0 0
-1.349752 -0.551907 16.184403 0 0 0
-1.304060 0.519202 16.416994 0 0 0
-2.634447 2.493528 15.818199 0 0 0
-1.398965 -0.062289 16.175411 0 0 0
-1.398965 -0.062289 16.175411 0 0 0
-1.424906 0.072069 16.191078 0 0 0
-2.257203 2.316476 16.007388 0 0 0
-1.333237 -0.443067 16.122790 0 0 0
-1.375731 -0.190270 16.133206 0 0 0
-1.375731 -0.190270 16.133206 0 0 0
-1.362542 0.174690 16.218770 0 0 0
-1.279879 0.495396 16.309666 0 0 0
-0.563068 2.149839 17.147417 0 0 0
-3.912120 2.622550 14.827942 0 0 0
-1.317873 -0.494237 16.088124 0 0 0
-1.358932 0.213685 16.177711 0 0 0
-1.194910 -0.746718 16.091325 0 0 0
-0.080173 1.989682 17.415718 0 0 0
-1.298083 -0.445574 16.053871 0 0 0
-1.276613 0.376551 16.145575 0 0 0
-1.185221 0.528952 16.196738 0 0 0
-0.261077 -1.356990 16.493753 0 0 0
-0.321435 1.545066 16.948395 0 0 0
-0.668115 1.334748 16.629705 0 0 0
-1.222202 -0.068933 15.937615 0 0 0
-1.105426 0.575147 16.140252 0 0 0
-0.575685 2.363496 16.772611 0 0 0
-0.834479 2.380134 16.521707 0 0 0
-0.834479 2.380134 16.521707 0 0 0
-0.825797 0.964182 16.239855 0 0 0
1.160776 -1.606026 16.941008 0 0 0
-1.006766 -0.135786 15.741073 0 0 0
-0.658847 2.476357 16.392110 0 0 0
1.166794 2.787660 17.647230 0 0 0
-3.809252 3.098547 14.389538 0 0 0
-3.809252 3.098547 14.389538 0 0 0
-0.896269 0.360205 15.789469 0 0 0
-3.794714 2.870557 14.307440 0 0 0
1.278615 2.874261 17.657805 0 0 0
-2.494905 2.910687 15.169034 0 0 0
-3.787516 2.789154 14.283550 0 0 0
-0.478251 1.115988 16.157135 0 0 0
-0.760384 2.495664 16.211885 0 0 0
-3.309810 2.775004 14.534363 0 0 0
-3.309810 2.775004 14.534363 0 0 0
0.561793 2.140429 16.948040 0 0 0
1.430254 -1.486737 16.862090 0 0 0
-0.820954 -0.098807 15.639443 0 0 0
-0.820954 -0.098807 15.639443 0 0 0
-0.562437 -0.664157 15.692427 0 0 0
-0.629684 0.721192 15.855274 0 0 0
-3.308181 2.780932 14.473286 0 0 0
1.484131 -1.554638 16.808932 0 0 0
-3.401708 2.801733 14.389191 0 0 0
-1.438588 -1.294517 14.912178 0 0 0
0.755469 2.299241 16.933257 0 0 0
-3.115675 2.771562 14.528829 0 0 0
-3.637261 2.964687 14.226977 0 0 0
1.639402 -1.652556 16.727089 0 0 0
-3.599328 3.338641 14.253273 0 0 0
-0.430853 -0.595595 15.565735 0 0 0
-0.530218 -0.289044 15.559499 0 0 0
0.143178 1.321423 16.163413 0 0 0
0.143178 1.321423 16.163413 0 0 0
1.637930 2.869458 17.356952 0 0 0
-0.240870 -0.619263 15.563128 0 0 0
-3.402701 2.824907 14.131423 0 0 0
-0.275825 0.769747 15.723043 0 0 0
1.782506 2.232564 17.249977 0 0 0
-0.296415 0.652997 15.671202 0 0 0
-3.891088 4.417441 14.081288 0 0 0
1.729649 -1.584165 16.522868 0 0 0
-0.116351 -0.539878 15.542625 0 0 0
1.800939 2.323096 17.204803 0 0 0
-2.961503 2.871831 14.287040 0 0 0
-14.037282 -2.671326 7.491262 0 0 0
-3.128902 2.876014 14.113600 0 0 0
-2.327102 2.624324 14.528286 0 0 0
2.143452 -1.061523 16.574582 0 0 0
-3.236724 3.326990 14.057434 0 0 0
-3.284793 3.027346 13.969228 0 0 0
2.036524 3.074802 17.145464 0 0 0
-3.206910 3.288543 13.986390 0 0 0
2.232361 -1.624981 16.314910 0 0 0
2.302718 -1.257638 16.402803 0 0 0
-12.010336 -1.768748 8.075971 0 0 0
-2.914346 2.870853 13.959061 0 0 0
2.412526 -1.104693 16.403528 0 0 0
-3.072227 3.305294 13.868719 0 0 0
-3.072227 3.305294 13.868719 0 0 0
-2.011082 2.269963 14.288167 0 0 0
-2.220399 2.541505 14.155048 0 0 0
-1.927783 2.099540 14.239121 0 0 0
-2.449810 2.997183 14.040688 0 0 0
-2.980210 2.955455 13.736035 0 0 0
-2.128693 2.394303 14.113622 0 0 0
-2.128693 2.394303 14.113622 0 0 0
-2.235383 2.764910 14.021623 0 0 0
-2.702477 3.310691 13.745373 0 0 0
-2.685240 3.195177 13.717034 0 0 0
-2.573592 3.226877 13.636075 0 0 0
-2.507670 3.621717 13.650928 0 0 0
-2.505543 3.612826 13.578683 0 0 0
-7.049191 -2.411100 10.235244 0 0 0
-2.345891 3.648222 13.403863 0 0 0
68.885164 38.517214 53.523959 0 0 0
-2.101683 3.748580 13.361805 0 0 0
-2.101683 3.748580 13.361805 0 0 0
-1.919440 3.799184 13.254745 0 0 0
-1.400412 3.612288 13.466737 0 0 0
-1.865124 3.645614 13.239444 0 0 0
-1.642674 3.781144 13.180081 0 0 0
-1.639626 3.365668 13.066854 0 0 0
-1.616136 3.575523 13.051273 0 0 0
-1.518097 3.888497 13.134786 0 0 0
-14.192038 -2.679396 7.399025 0 0 0
97.271334 27.462927 44.001130 0 0 0
-0.073474 5.166298 11.279059 0 0 0
48.178447 4.113098 22.582537 0 0 0
5.732657 8.197945 11.709866 0 0 0
41.299466 28.659777 20.634600 0 0 0
-0.216274 4.727214 9.623028 0 0 0
-1.439829 4.226887 9.183894 0 0 0
-3.776439 2.692131 8.684066 0 0 0
-3.996635 2.908877 25.540783 0 0 0
-5.145734 0.308956 22.105400 0 0 0
8.481406 4.720960 42.340330 0 0 0
-10.322781 -1.470038 12.083752 0 0 0
-11.515000 -1.589980 9.253228 0 0 0
-10.430451 -2.482948 10.073617 0 0 0
-10.430451 -2.482948 10.073617 0 0 0
-1.324832 -0.652090 19.509017 0 0 0
-2.411022 -0.074657 18.651572 0 0 0
-1.384291 1.076858 19.822211 0 0 0
-1.460661 1.177661 19.766747 0 0 0
-1.744264 2.429735 19.658139 0 0 0
-1.553897 -2.267241 18.675071 0 0 0
-1.497414 3.461640 20.133012 0 0 0
-1.558972 -0.837436 19.009359 0 0 0
-1.589450 0.261867 19.224143 0 0 0
-1.595540 0.351912 19.194949 0 0 0
-1.576547 0.437330 19.231517 0 0 0
-1.443378 -1.643075 18.813343 0 0 0
-1.470198 -1.550525 18.817260 0 0 0
-1.509910 -1.254852 18.841574 0 0 0
-1.613122 1.067170 19.304504 0 0 0
-1.528944 -0.433858 19.004617 0 0 0
-1.596481 1.222875 19.305807 0 0 0
-1.647700 1.760381 19.392749 0 0 0
-1.574977 0.775843 19.214088 0 0 0
-1.655387 1.633765 19.341824 0 0 0
-1.446111 -1.150902 18.835733 0 0 0
-1.422267 -1.948779 18.658562 0 0 0
-1.483582 -0.384828 18.965597 0 0 0
-1.483582 -0.384828 18.965597 0 0 0
-1.556952 0.930122 19.178208 0 0 0
-1.556952 0.930122 19.178208 0 0 0
-1.569394 1.258439 19.246963 0 0 0
-1.345492 -1.966576 18.638333 0 0 0
-1.373119 -1.629533 18.694746 0 0 0
-1.587483 0.452456 18.965496 0 0 0
-1.491406 0.687959 19.095037 0 0 0
-1.497324 0.887857 19.133240 0 0 0
-1.361686 -1.604296 18.614180 0 0 0
-1.351064 -0.137438 18.941956 0 0 0
-1.368299 0.896296 19.020792 0 0 0
-1.180831 -1.951970 18.472919 0 0 0
-1.144099 -1.069429 18.622790 0 0 0
-1.112277 -1.831865 18.455505 0 0 0
-1.161391 0.786644 18.921676 0 0 0
-2.885166 1.871386 17.539824 0 0 0
-1.034524 -1.324958 18.454075 0 0 0
-1.129694 1.198809 18.942658 0 0 0
-1.129694 1.198809 18.942658 0 0 0
-2.917708 1.641349 17.368082 0 0 0
-1.156463 0.973261 18.774247 0 0 0
-5.319339 2.948687 15.417020 0 0 0
-0.812559 -2.151889 18.231807 0 0 0
-0.863244 -1.532081 18.314169 0 0 0
-2.977799 1.659100 17.125452 0 0 0
-0.938632 1.595539 18.852914 0 0 0
-0.974617 1.224169 18.711851 0 0 0
-0.974617 1.224169 18.711851 0 0 0
-0.974617 1.224169 18.711851 0 0 0
-5.252968 2.902095 15.352253 0 0 0
-0.939140 -0.805718 18.250678 0 0 0
-0.858827 1.833409 18.832978 0 0 0
-8.006319 1.103533 12.456514 0 0 0
-8.006319 1.103533 12.456514 0 0 0
-0.632300 -1.823196 18.085371 0 0 0
-1.072403 -0.228743 17.994298 0 0 0
-0.638468 -1.226942 18.064812 0 0 0
-2.224933 1.750120 17.323318 0 0 0
-1.377480 -0.405059 17.498335 0 0 0
-2.239030 1.854360 17.171637 0 0 0
-0.791839 1.006219 18.159114 0 0 0
-4.930122 2.719682 15.103932 0 0 0
-1.458624 -0.165108 17.321792 0 0 0
-0.540120 -1.095910 17.836109 0 0 0
-0.681938 1.153590 18.134102 0 0 0
-0.501236 -1.344693 17.726793 0 0 0
-0.697726 1.364882 18.107118 0 0 0
-4.891578 3.026888 15.023679 0 0 0
-0.365724 -1.464070 17.709642 0 0 0
-4.007442 2.413941 15.594633 0 0 0
-2.086553 2.259222 17.094580 0 0 0
-12.006620 -2.741694 8.114864 0 0 0
-6.015616 -2.284037 12.966108 0 0 0
-4.087409 2.579788 15.453149 0 0 0
-4.744122 3.002107 15.014391 0 0 0
-1.869215 2.195424 17.108247 0 0 0
-2.003482 2.226140 17.004528 0 0 0
-0.366452 -1.541220 17.499609 0 0 0
-0.554157 -1.288327 17.323131 0 0 0
-1.509954 -0.568598 16.621994 0 0 0
-0.436256 1.542237 17.874490 0 0 0
-4.133390 2.547814 15.188792 0 0 0
0.171059 -1.899774 17.560783 0 0 0
-2.098578 2.290587 16.650747 0 0 0
-1.535835 -0.423028 16.521232 0 0 0
-1.535835 -0.423028 16.521232 0 0 0
-3.987263 2.490835 15.211815 0 0 0
-3.782334 2.489606 15.352851 0 0 0
-1.187573 0.992091 17.004903 0 0 0
-1.187573 0.992091 17.004903 0 0 0
-4.001930 2.518945 15.107395 0 0 0
-1.888655 2.243838 16.669411 0 0 0
-1.022678 1.073506 17.015245 0 0 0
-4.456587 2.779174 14.773002 0 0 0
-1.065580 -1.062111 16.510589 0 0 0
-0.810306 1.266638 17.159810 0 0 0
0.395346 -1.914265 17.424074 0 0 0
-1.151061 0.985916 16.834929 0 0 0
-4.449693 2.624742 14.667551 0 0 0
0.048864 -1.676734 17.144559 0 0 0
0.048864 -1.676734 17.144559 0 0 0
-1.083886 -1.027143 16.430489 0 0 0
-3.311248 2.403060 15.425966 0 0 0
-0.063136 -1.539383 17.053270 0 0 0
-1.443281 -0.327767 16.246394 0 0 0
-0.592749 1.442926 17.193827 0 0 0
-0.753426 1.329058 17.012306 0 0 0
-0.769516 -1.235945 16.492745 0 0 0
-2.364758 2.459568 15.956989 0 0 0
-1.356849 0.267663 16.235011 0 0 0
-1.080643 0.917537 16.479561 0 0 0
-4.235082 3.182608 14.652256 0 0 0
-1.272079 -0.390404 16.050584 0 0 0
-1.187359 0.649494 16.304977 0 0 0
-2.757401 2.553275 15.547307 0 0 0
-0.053331 1.857565 17.335475 0 0 0
-12.590519 -2.195478 8.456560 0 0 0
-1.268671 -0.115215 16.020394 0 0 0
-0.885165 2.279618 16.681005 0 0 0
-1.242330 0.057289 16.002038 0 0 0
-4.088309 2.725342 14.475410 0 0 0
-0.914583 0.808619 16.291174 0 0 0
-0.940442 2.406176 16.501602 0 0 0
-1.107492 0.155681 15.911652 0 0 0
-1.091279 0.116082 15.845230 0 0 0
-2.894668 2.842413 15.114397 0 0 0
-0.980460 0.411693 15.894870 0 0 0
-2.259167 2.896900 15.485754 0 0 0
-3.490305 2.734670 14.611233 0 0 0
-0.771586 -0.786611 15.798528 0 0 0
-3.903984 2.765649 14.320577 0 0 0
-0.610015 -0.899750 15.800998 0 0 0
-2.507172 2.890271 15.215567 0 0 0
0.593517 2.221523 17.021957 0 0 0
0.593517 2.221523 17.021957 0 0 0
-2.373598 2.732624 15.166524 0 0 0
-3.731812 3.115380 14.332520 0 0 0
0.629424 2.134893 16.903854 0 0 0
-0.510631 -0.607861 15.644387 0 0 0
-0.697948 0.046748 15.593131 0 0 0
-0.665665 0.370209 15.668671 0 0 0
-0.385250 2.683984 16.237199 0 0 0
-3.582318 2.844369 14.153778 0 0 0
0.695162 2.150986 16.745026 0 0 0
-0.547713 0.362797 15.599269 0 0 0
-0.547713 0.362797 15.599269 0 0 0
-0.473354 0.474615 15.667357 0 0 0
-3.518553 3.300610 14.201642 0 0 0
1.717283 -1.640435 16.642806 0 0 0
-0.463872 -0.121860 15.523050 0 0 0
0.061946 1.157360 16.006682 0 0 0
-0.399196 0.292130 15.550821 0 0 0
-0.399196 0.292130 15.550821 0 0 0
0.023357 1.057664 15.931915 0 0 0
-2.373140 2.520623 14.658589 0 0 0
-2.473906 2.944481 14.649382 0 0 0
-0.170338 0.012553 15.533805 0 0 0
-3.069512 2.883763 14.224597 0 0 0
1.874673 -1.525819 16.489732 0 0 0
1.947464 -1.388189 16.559635 0 0 0
0.066926 -0.268071 15.463983 0 0 0
2.074547 -1.490598 16.453830 0 0 0
2.124347 -1.407764 16.463190 0 0 0
0.299560 -0.331042 15.517869 0 0 0
2.122273 3.113709 17.111261 0 0 0
-3.229375 3.209239 13.946522 0 0 0
2.101670 -1.590621 16.308417 0 0 0
2.346390 -0.891025 16.514707 0 0 0
2.333785 -1.001775 16.477113 0 0 0
2.333785 -1.001775 16.477113 0 0 0
2.312320 -1.078356 16.433352 0 0 0
-2.320327 2.825812 14.309958 0 0 0
2.271106 -1.144136 16.325291 0 0 0
-2.315910 3.021865 14.317508 0 0 0
-3.027657 3.233052 13.868600 0 0 0
-2.895820 2.904984 13.878739 0 0 0
-2.932200 3.482484 13.951603 0 0 0
-2.377821 2.934773 14.144772 0 0 0
-2.992278 3.373611 13.859285 0 0 0
-5.853813 -0.350620 11.590398 0 0 0
-2.178619 2.528200 14.080786 0 0 0
-1.897097 2.316399 14.107779 0 0 0
-1.702451 2.135594 14.151505 0 0 0
-2.745061 3.344454 13.741706 0 0 0
-1.509096 2.275219 14.169653 0 0 0
-2.601713 3.519255 13.292798 0 0 0
-9.714882 -2.939259 8.703446 0 0 0
-1.554010 3.274521 13.421522 0 0 0
-1.845364 3.256333 13.210075 0 0 0
-1.581448 3.450057 13.041057 0 0 0
-3.410413 2.502890 11.936197 0 0 0
-0.876169 4.191154 13.107463 0 0 0
50.535348 3.165894 31.201175 0 0 0
11.788031 12.645406 17.040625 0 0 0
0.939700 6.050476 11.504187 0 0 0
36.472642 25.513727 18.975747 0 0 0
-12.869164 -2.515115 8.593727 0 0 0
-5.648882 -0.858719 22.961216 0 0 0
-10.427421 -3.635969 11.985406 0 0 0
8.822512 4.971573 46.166296 0 0 0
0.266270 3.760293 28.764447 0 0 0
0.266270 3.760293 28.764447 0 0 0
0.369831 3.209408 22.546828 0 0 0
-1.277059 -1.371735 19.484568 0 0 0
-1.341762 1.652202 20.082372 0 0 0
-1.228786 -1.391340 19.395503 0 0 0
-1.454518 -1.809521 19.028645 0 0 0
-1.496181 2.928339 20.123793 0 0 0
-1.589734 0.627450 19.196969 0 0 0
-1.429275 -1.696188 18.723883 0 0 0
-1.518253 0.562953 19.140377 0 0 0
-1.701845 2.826818 19.470451 0 0 0
-1.452131 -0.220600 18.927465 0 0 0
-1.497988 0.482591 19.043600 0 0 0
-1.234889 -0.366540 18.782684 0 0 0
-1.234889 -0.366540 18.782684 0 0 0
-1.301472 1.403486 19.043841 0 0 0
-1.199117 1.733846 19.190958 0 0 0
-1.073091 -0.444392 18.626700 0 0 0
-2.792147 2.380570 17.719235 0 0 0
-3.912986 2.552103 16.736227 0 0 0
-1.087084 1.438291 19.005668 0 0 0
-1.104103 1.329059 18.917605 0 0 0
-1.104103 1.329059 18.917605 0 0 0
-0.890624 -1.985425 18.340928 0 0 0
-0.933756 -0.831971 18.549986 0 0 0
-2.928555 1.822746 17.366455 0 0 0
-2.918044 1.934270 17.314328 0 0 0
-2.042119 0.418099 17.756433 0 0 0
-1.031905 0.398992 18.564441 0 0 0
-2.658138 1.685771 17.389494 0 0 0
-4.007046 2.552522 16.390917 0 0 0
-5.242848 2.378548 15.144774 0 0 0
-0.820297 1.047502 18.594753 0 0 0
-5.115256 2.700232 15.275213 0 0 0
-0.639820 -1.181312 18.222770 0 0 0
-0.601737 -2.100090 18.048245 0 0 0
-0.916438 -0.534069 17.985830 0 0 0
-0.800760 1.112339 18.186760 0 0 0
-5.017585 2.999309 15.109317 0 0 0
-2.087697 1.942024 17.189519 0 0 0
-2.130049 1.803873 17.098803 0 0 0
-0.439129 1.711168 18.402988 0 0 0
-2.105909 2.382039 17.142378 0 0 0
-0.715530 -1.165696 17.463163 0 0 0
-3.186721 2.407038 16.227602 0 0 0
1.471941 1.477916 19.738866 0 0 0
-4.172704 2.568118 15.464099 0 0 0
-4.749076 2.823672 15.052489 0 0 0
-1.490604 -0.465943 16.924138 0 0 0
-1.544551 -0.340178 16.757152 0 0 0
-1.771277 1.834110 16.915247 0 0 0
0.032085 2.191586 18.294259 0 0 0
-4.103951 2.601177 15.145409 0 0 0
-1.359704 -0.789349 16.535750 0 0 0
-4.084413 2.528769 15.127372 0 0 0
-1.401755 0.317363 16.674237 0 0 0
-2.229535 2.391797 16.444213 0 0 0
-3.641624 2.452632 15.368472 0 0 0
-1.433829 0.456709 16.616966 0 0 0
-0.047845 -1.602864 17.090598 0 0 0
0.000766 2.117495 17.832476 0 0 0
-1.363088 -0.702943 16.154388 0 0 0
-1.195776 -0.843188 16.199474 0 0 0
-0.035596 1.994863 17.574129 0 0 0
-11.608339 -1.239254 8.553672 0 0 0
-4.170403 2.851273 14.539160 0 0 0
-1.110499 0.627721 16.211199 0 0 0
-2.417343 2.548506 15.661237 0 0 0
-2.268745 2.248223 15.690697 0 0 0
-4.013463 3.189752 14.547039 0 0 0
-0.757083 0.672395 16.176105 0 0 0
0.680385 2.545851 17.499631 0 0 0
-0.773095 0.914992 16.165609 0 0 0
-0.773095 0.914992 16.165609 0 0 0
-3.620526 2.739355 14.556918 0 0 0
-2.027034 2.512369 15.528565 0 0 0
-2.355786 2.733319 15.174926 0 0 0
-0.485365 1.068285 16.061079 0 0 0
-0.677053 0.564897 15.822082 0 0 0
0.642273 1.933879 16.920057 0 0 0
-3.729527 3.390427 14.324573 0 0 0
0.577523 -1.229899 16.238210 0 0 0
-0.771653 0.123571 15.593923 0 0 0
1.593146 -1.341237 16.806983 0 0 0
-0.566413 0.575242 15.737315 0 0 0
1.673557 -1.525318 16.708909 0 0 0
-0.303601 0.891103 15.843442 0 0 0
-3.052117 2.850809 14.423749 0 0 0
-2.526949 2.837826 14.741458 0 0 0
1.797005 -1.694241 16.620475 0 0 0
0.680387 -0.981792 16.045273 0 0 0
0.902274 -1.137081 16.134130 0 0 0
-11.716739 -2.062164 8.282656 0 0 0
1.746952 3.042779 17.331179 0 0 0
-2.444877 2.910356 14.717708 0 0 0
1.746952 3.042779 17.331179 0 0 0
-2.871629 2.917921 14.294817 0 0 0
0.013750 0.603553 15.669639 0 0 0
2.006831 -1.611279 16.435757 0 0 0
1.865690 -1.286036 16.408576 0 0 0
2.195195 -0.833366 16.579037 0 0 0
-3.166426 3.377488 13.963528 0 0 0
2.214732 -1.094821 16.382681 0 0 0
2.339884 -1.536298 16.352580 0 0 0
2.431576 -1.375563 16.391891 0 0 0
-2.988014 2.942814 13.833531 0 0 0
-12.694513 -2.002405 8.113903 0 0 0
-2.266777 2.731420 14.157715 0 0 0
-1.729785 2.045016 14.324704 0 0 0
-2.956700 3.144294 13.776025 0 0 0
-1.722548 3.496949 13.180463 0 0 0
-1.603171 3.841049 13.100672 0 0 0
-1.544463 3.952314 13.024169 0 0 0
-6.663829 1.828379 10.380566 0 0 0
-2.804045 2.957440 12.174618 0 0 0
41.798918 12.792744 32.238559 0 0 0
119.052118 85.330224 65.437690 0 0 0
42.881016 12.718706 26.035271 0 0 0
-2.565703 3.894747 10.925892 0 0 0
-3.867576 0.652906 10.032405 0 0 0
-12.078734 -1.666898 7.861390 0 0 0
16.275406 14.743702 16.802313 0 0 0
5.542294 7.618093 11.411336 0 0 0
-1.274954 1.257033 9.225442 0 0 0
-13.655127 -2.646849 7.455045 0 0 0
-5.221481 2.848120 25.797029 0 0 0
-11.912511 -1.107287 12.199284 0 0 0
-12.008732 -1.939084 10.275480 0 0 0
-10.031963 -0.609738 14.034551 0 0 0
-10.031963 -0.609738 14.034551 0 0 0
-9.858369 -0.528105 14.263291 0 0 0
-9.858369 -0.528105 14.263291 0 0 0
-7.812117 2.515402 18.162324 0 0 0
16.179643 -12.395929 50.454880 0 0 0
15.485549 -0.988912 52.532321 0 0 0
0.554381 3.713363 27.517171 0 0 0
19.214995 -6.524604 47.867501 0 0 0
-12.135906 -2.656088 8.871790 0 0 0
19.037787 1.157765 43.700242 0 0 0
-1.405387 1.629870 20.024193 0 0 0
-1.316401 3.243072 20.489784 0 0 0
-1.205618 -1.387276 19.415818 0 0 0
-1.208760 -0.782931 19.565110 0 0 0
-1.420284 0.011946 19.552227 0 0 0
-11.487129 -1.377209 9.290329 0 0 0
-1.418116 -2.343113 18.901449 0 0 0
-1.491805 2.928884 20.127312 0 0 0
-1.609631 0.908093 19.268549 0 0 0
-1.616824 1.447249 19.363748 0 0 0
-1.359277 -2.191003 18.650256 0 0 0
-1.989595 2.604344 18.804540 0 0 0
-2.417217 2.730454 18.426171 0 0 0
-5.731330 2.875737 15.315271 0 0 0
-2.809310 2.629457 17.802255 0 0 0
-1.123355 1.420732 18.974017 0 0 0
-1.933233 -2.431962 17.198733 0 0 0
-0.976643 1.439240 18.924340 0 0 0
-3.511840 2.378948 16.856972 0 0 0
-0.895501 -0.758401 18.427470 0 0 0
-0.708295 -1.898375 18.282524 0 0 0
-0.991282 -0.392355 18.315200 0 0 0
-0.951776 -0.038661 18.444924 0 0 0
-0.707706 -1.087569 18.112672 0 0 0
-0.707706 -1.087569 18.112672 0 0 0
-4.516198 2.768351 15.693784 0 0 0
-0.614746 -1.336963 18.063666 0 0 0
-0.860682 0.756608 18.302264 0 0 0
-0.860682 0.756608 18.302264 0 0 0
-0.686991 -0.925433 17.957365 0 0 0
-0.439380 1.665780 18.525174 0 0 0
-1.451232 -0.027830 17.279542 0 0 0
-1.534681 -0.298616 17.100915 0 0 0
-3.883578 2.372552 15.542853 0 0 0
-3.795932 2.301533 15.542789 0 0 0
-4.089535 2.427694 15.322061 0 0 0
-1.477592 0.318844 16.862750 0 0 0
-0.245759 -1.574168 17.416748 0 0 0
-1.103019 -1.075437 16.858451 0 0 0
-1.103019 -1.075437 16.858451 0 0 0
-1.588421 -0.097057 16.604612 0 0 0
-10.084485 -0.271191 10.432444 0 0 0
-1.216415 -0.923064 16.456103 0 0 0
-8.274144 -1.481110 11.302139 0 0 0
-0.908943 -1.198154 16.568287 0 0 0
-1.412392 -0.411529 16.229741 0 0 0
-0.930512 1.173102 16.863252 0 0 0
-0.916589 -1.111633 16.314629 0 0 0
-1.080257 0.851971 16.562594 0 0 0
-0.646915 -1.113674 16.183970 0 0 0
0.910096 -1.559708 17.094696 0 0 0
1.465207 -1.065187 17.580275 0 0 0
-1.031181 -0.544253 15.885847 0 0 0
0.245953 1.957609 17.128189 0 0 0
-2.428760 2.909010 15.464443 0 0 0
-0.844446 2.506089 16.349313 0 0 0
-0.467597 -0.980282 15.894827 0 0 0
1.261957 -1.552404 16.894607 0 0 0
-0.734821 -0.711241 15.697257 0 0 0
0.456194 1.975873 16.984041 0 0 0
-2.295306 2.832256 15.302619 0 0 0
1.310244 -1.664305 16.875612 0 0 0
0.526599 2.130047 17.043152 0 0 0
-0.374686 -0.881061 15.697584 0 0 0
-2.574441 2.861703 14.830612 0 0 0
2.031151 -1.706904 16.989817 0 0 0
-0.465720 -0.729146 15.551910 0 0 0
-2.574441 2.861703 14.830612 0 0 0
-0.403595 -0.373419 15.605216 0 0 0
-0.403595 -0.373419 15.605216 0 0 0
-2.094528 2.804114 14.990633 0 0 0
39.919010 -13.569646 38.157372 0 0 0
-10.995847 -1.957536 8.813569 0 0 0
-0.154234 -0.329145 15.488657 0 0 0
-0.128323 -0.159352 15.520364 0 0 0
0.155471 -0.177010 15.475260 0 0 0
2.164699 -1.467260 16.398390 0 0 0
0.393474 0.400617 15.620206 0 0 0
-3.086756 3.243762 13.914455 0 0 0
-2.058479 2.364138 14.245614 0 0 0
-1.865237 2.426909 14.090823 0 0 0
-1.507563 2.457271 14.127400 0 0 0
-7.437434 1.459502 10.358075 0 0 0
-1.666319 3.922659 13.175024 0 0 0
1.417784 -1.589664 13.602395 0 0 0
114.989645 80.777628 73.202859 0 0 0
-13.882465 -2.660156 7.487540 0 0 0
-12.071185 -1.662718 7.864014 0 0 0
24.619086 9.833529 18.298814 0 0 0
-2.735070 3.954106 10.214302 0 0 0
5.076629 8.285238 11.642622 0 0 0
-5.423441 2.749917 26.710890 0 0 0
-4.491336 2.932571 25.009808 0 0 0
13.453960 -9.473649 48.241708 0 0 0
14.204249 -8.175455 49.344842 0 0 0
16.686075 -5.843393 52.690838 0 0 0
14.018836 0.709052 49.501597 0 0 0
15.482637 -2.278833 48.884284 0 0 0
16.458663 -9.632012 46.745871 0 0 0
19.485464 -1.117557 44.680406 0 0 0
-1.030543 -1.000302 19.654677 0 0 0
-12.974157 -2.469227 8.023070 0 0 0
-1.922675 3.495394 19.754554 0 0 0
-1.689647 1.893619 19.420849 0 0 0
-1.668594 2.477693 19.578468 0 0 0
22.859792 -9.643947 39.235203 0 0 0
-4.998167 2.951770 15.991926 0 0 0
-4.682919 2.997996 16.203605 0 0 0
-1.077028 -0.432530 18.632025 0 0 0
-0.782116 -2.050678 18.169919 0 0 0
-0.873404 0.592590 18.628434 0 0 0
-0.873404 0.592590 18.628434 0 0 0
-0.564451 -2.001140 18.026141 0 0 0
-2.185364 1.723304 17.326001 0 0 0
-4.854576 2.471107 14.961076 0 0 0
-1.594705 -0.150073 17.002014 0 0 0
2.214025 -2.342994 19.490961 0 0 0
-0.071977 -1.894242 17.764374 0 0 0
-0.118619 2.017520 18.430834 0 0 0
-1.527499 0.050563 16.779859 0 0 0
-0.368570 1.660661 17.810650 0 0 0
28.548387 -11.035087 37.305687 0 0 0
-1.738410 1.981276 16.814535 0 0 0
-0.438755 1.488014 17.667761 0 0 0
-1.522528 1.970723 16.803926 0 0 0
0.087096 2.289417 18.013731 0 0 0
-1.528907 2.130664 16.630265 0 0 0
-2.126174 2.566075 16.302667 0 0 0
-0.148276 1.833073 17.445580 0 0 0
-3.336401 2.771869 15.315673 0 0 0
0.032694 2.127852 17.563556 0 0 0
-2.285498 2.514204 15.950536 0 0 0
-2.285498 2.514204 15.950536 0 0 0
27.503381 -10.824221 34.387518 0 0 0
-1.162033 0.157390 15.920181 0 0 0
0.992779 -1.698758 17.012744 0 0 0
-0.970932 2.508238 16.423010 0 0 0
-2.196224 2.670067 15.598057 0 0 0
0.274841 1.822527 17.051134 0 0 0
-2.387603 2.678678 15.150700 0 0 0
-7.925277 0.675176 11.164462 0 0 0
0.644700 2.037833 16.847446 0 0 0
0.474017 -1.112793 16.142758 0 0 0
-2.260982 2.728843 14.765216 0 0 0
1.724320 3.318794 17.272067 0 0 0
1.800601 -1.307785 16.503280 0 0 0
-3.297445 3.087573 14.019625 0 0 0
-11.614694 -2.170576 8.910965 0 0 0
2.155573 -0.561716 16.503059 0 0 0
-2.526371 2.968031 14.054611 0 0 0
16.163345 7.040855 22.996026 0 0 0
15.514199 7.156916 22.683571 0 0 0
39.804922 -8.685223 31.638854 0 0 0
-10.403710 -1.984676 8.419570 0 0 0
-7.257759 1.512573 10.012047 0 0 0
53.350545 -6.286610 33.200823 0 0 0
-6.351251 2.027457 10.260311 0 0 0
40.127497 12.251206 28.784817 0 0 0
53.647365 -5.979669 31.577153 0 0 0
58.073324 8.718600 28.452120 0 0 0
-1.984348 4.228754 10.721885 0 0 0
3.167634 7.034553 11.813222 0 0 0
-1.220428 4.408734 10.268191 0 0 0
0.107917 4.775860 9.607889 0 0 0
-10.411120 -0.869279 15.650508 0 0 0
-12.873085 -2.436869 8.401797 0 0 0
-7.137385 1.934599 20.104615 0 0 0
13.805294 -9.515558 50.565509 0 0 0
16.393411 -9.679960 53.747840 0 0 0
15.028659 -10.528768 48.884830 0 0 0
17.260192 -3.238800 55.044534 0 0 0
16.884245 -8.582057 50.513624 0 0 0
-12.194128 -1.376832 9.667433 0 0 0
16.394724 -10.081539 49.044860 0 0 0
12.880080 0.919251 47.330207 0 0 0
-0.535503 3.637701 27.459078 0 0 0
-12.375685 -2.031927 8.984276 0 0 0
18.611382 -1.948083 52.286651 0 0 0
15.438048 -2.034464 46.783442 0 0 0
0.171636 3.703078 27.719529 0 0 0
0.507278 3.572708 28.058505 0 0 0
20.134327 -13.511030 48.601600 0 0 0
18.046496 0.565039 48.780762 0 0 0
-10.765229 -2.843789 10.435726 0 0 0
17.702222 2.219799 43.408707 0 0 0
-1.306220 -2.825909 20.226606 0 0 0
20.918830 -12.407673 40.842842 0 0 0
-12.491279 -2.197679 8.153733 0 0 0
-1.269435 -2.520266 19.560823 0 0 0
20.469131 -12.184763 38.736431 0 0 0
-1.030334 -2.079104 19.644868 0 0 0
-1.360314 -2.209474 19.022599 0 0 0
-1.360314 -2.209474 19.022599 0 0 0
14.650988 -9.253534 33.001038 0 0 0
-4.748355 2.893728 16.657382 0 0 0
-2.032803 1.869874 18.587648 0 0 0
-2.820214 1.822063 17.603933 0 0 0
-2.820214 1.822063 17.603933 0 0 0
-0.992731 0.125756 18.600356 0 0 0
-0.954077 0.286269 18.463312 0 0 0
-0.954077 0.286269 18.463312 0 0 0
28.981739 -7.780004 41.049812 0 0 0
-0.474469 -1.344061 17.864665 0 0 0
-2.168422 1.655112 17.018001 0 0 0
-0.595115 1.349095 18.124300 0 0 0
-1.540442 -0.566606 16.672974 0 0 0
-1.227036 0.926905 17.111679 0 0 0
-1.526177 0.147468 16.649711 0 0 0
29.550810 -9.981475 37.985671 0 0 0
-1.096892 0.946744 16.823199 0 0 0
26.757624 -10.976470 35.102154 0 0 0
-2.203623 2.528911 16.250167 0 0 0
-1.106726 -0.908237 16.248923 0 0 0
-1.935527 2.181272 16.150141 0 0 0
0.682361 -1.443006 17.074321 0 0 0
-0.929453 2.336952 16.627035 0 0 0
-0.780857 -0.910964 16.073942 0 0 0
-0.622018 -1.033244 15.974915 0 0 0
-0.600266 -0.922502 15.819150 0 0 0
-3.502677 2.903875 14.081310 0 0 0
-2.721515 2.874204 14.195686 0 0 0
-2.991147 2.921931 13.937566 0 0 0
33.676220 -5.617813 32.906717 0 0 0
33.952716 -10.373588 32.020473 0 0 0
2.021979 -1.289829 15.533680 0 0 0
34.434530 -3.569403 32.024362 0 0 0
38.274609 -8.294011 33.008387 0 0 0
31.441738 -7.817898 29.252269 0 0 0
42.506098 -6.908466 32.591340 0 0 0
49.973738 3.987022 35.309104 0 0 0
30.052436 5.553414 26.333325 0 0 0
41.883648 -6.719080 28.637379 0 0 0
49.055508 3.304856 30.560873 0 0 0
52.657833 -8.515095 29.793082 0 0 0
39.671680 9.774636 26.901610 0 0 0
38.728369 12.040752 26.741135 0 0 0
38.728369 12.040752 26.741135 0 0 0
59.760709 8.025129 32.898622 0 0 0
58.812551 13.773401 29.734304 0 0 0
62.562731 13.096601 30.336235 0 0 0
56.736961 -5.401106 25.455382 0 0 0
15.392132 7.106638 14.959182 0 0 0
80.673633 16.838599 28.618248 0 0 0
16.058532 -4.744411 55.787507 0 0 0
15.518354 -4.033944 54.164222 0 0 0
8.926072 -10.224234 40.400441 0 0 0
16.148617 -10.801560 50.441278 0 0 0
17.523438 -7.421839 52.552059 0 0 0
15.177958 -8.419596 46.308050 0 0 0
18.218639 -3.715711 49.578852 0 0 0
0.292608 3.736919 27.569591 0 0 0
0.292608 3.736919 27.569591 0 0 0
20.764561 -4.293537 47.811153 0 0 0
19.426971 3.533092 45.579091 0 0 0
21.922202 -6.951608 43.216905 0 0 0
20.422067 -11.727938 39.979017 0 0 0
-1.314869 -2.206963 19.060502 0 0 0
-1.314869 -2.206963 19.060502 0 0 0
25.538187 -5.317223 43.234415 0 0 0
-1.950376 1.902949 18.657721 0 0 0
-1.074004 -1.588962 18.559022 0 0 0
-1.074004 -1.588962 18.559022 0 0 0
-1.267568 0.992332 18.952431 0 0 0
28.773630 -5.685215 43.604995 0 0 0
-3.064077 2.146004 17.114793 0 0 0
-5.197736 2.543752 15.193596 0 0 0
-4.683522 -2.591348 14.481918 0 0 0
-0.732349 -0.417524 18.058314 0 0 0
26.497601 -11.387296 38.288262 0 0 0
-0.686016 1.256987 18.454850 0 0 0
29.337807 -7.816178 41.321393 0 0 0
-0.475963 -0.739178 18.008446 0 0 0
-4.314273 2.535610 15.579761 0 0 0
-4.836611 2.556218 14.841121 0 0 0
-4.836611 2.556218 14.841121 0 0 0
-0.596062 1.227450 17.911536 0 0 0
-0.425949 1.711575 18.134886 0 0 0
-4.005393 2.455496 15.368725 0 0 0
-4.005393 2.455496 15.368725 0 0 0
28.386251 -8.388196 37.969453 0 0 0
