ply
format ascii 1.0
element vertex 1112
property float x
property float y
property float z
property uchar diffuse_red
property uchar diffuse_green
property uchar diffuse_blue
end_header
-3.236313 0.903036 5.293901 0 0 0
-2.916096 1.103903 5.014814 0 0 0
-3.283798 0.676109 5.774540 0 0 0
-2.758854 1.171882 4.905193 0 0 0
-35.269186 2.839903 67.076042 0 0 0
-2.608183 1.123103 5.091224 0 0 0
-2.717885 0.944047 5.440276 0 0 0
-2.390359 1.244183 4.928795 0 0 0
-2.236097 1.391264 4.678748 0 0 0
-2.396021 1.148428 5.083559 0 0 0
-2.157725 1.429730 4.610382 0 0 0
-2.069641 1.516274 4.476829 0 0 0
-2.254278 1.208397 5.051696 0 0 0
-1.530603 0.847013 3.415024 0 0 0
-2.222607 1.180885 5.121708 0 0 0
-2.454420 0.864418 5.719395 0 0 0
-1.739960 1.489388 4.636664 0 0 0
-1.707052 1.507063 4.602482 0 0 0
-1.694691 1.500063 4.625006 0 0 0
-1.679515 1.475435 4.689378 0 0 0
-1.984360 -0.615302 5.779713 0 0 0
-1.659516 1.430695 4.826938 0 0 0
-1.689825 1.323668 5.019490 0 0 0
-1.610664 1.325347 5.050950 0 0 0
-1.981161 -1.059302 6.431332 0 0 0
-1.700667 -0.296451 5.659541 0 0 0
-1.981758 -1.211415 6.793540 0 0 0
-1.972242 -1.281257 6.801916 0 0 0
-1.602421 -0.208248 5.565076 0 0 0
-0.594196 -0.020028 2.219572 0 0 0
-1.669007 -0.794724 6.094518 0 0 0
-1.633356 -0.641155 5.978429 0 0 0
-1.628033 -0.763857 6.021232 0 0 0
-1.031656 -0.122209 3.919762 0 0 0
-1.599233 -0.639420 5.961265 0 0 0
-1.566898 -0.742716 5.884194 0 0 0
-1.576648 -0.636906 5.964001 0 0 0
-1.335259 1.368384 5.053913 0 0 0
-1.348889 1.258674 5.298701 0 0 0
-1.202183 0.199533 4.808110 0 0 0
-1.448611 0.983589 5.858644 0 0 0
-1.376082 1.101826 5.610998 0 0 0
-1.376082 1.101826 5.610998 0 0 0
-1.352592 1.074869 5.628975 0 0 0
-1.242682 1.324013 5.181892 0 0 0
-1.355572 1.015655 5.816206 0 0 0
-1.176865 -0.134117 5.337771 0 0 0
-1.082755 1.471350 4.908114 0 0 0
-4.304313 -3.173019 20.319868 0 0 0
-1.240461 0.955326 5.969098 0 0 0
-1.044959 0.157233 5.202092 0 0 0
-1.131943 1.034378 5.831456 0 0 0
-1.346436 -0.953622 7.013562 0 0 0
-0.898113 1.601364 4.713674 0 0 0
-1.467091 -1.855223 7.877676 0 0 0
-1.420351 -1.858371 7.911410 0 0 0
-1.045281 1.038714 5.840047 0 0 0
-0.863299 1.523183 4.862642 0 0 0
-1.103790 -0.771806 6.287990 0 0 0
-0.880360 1.445947 5.037443 0 0 0
-3.640141 3.206252 20.865747 0 0 0
-1.062828 -0.780683 6.302053 0 0 0
-0.948261 1.101492 5.748820 0 0 0
-0.851225 1.262861 5.462795 0 0 0
-0.695095 -0.331571 4.828746 0 0 0
-0.931416 -0.773902 6.321587 0 0 0
-0.908760 -0.786327 6.323061 0 0 0
-0.715885 1.497893 4.985145 0 0 0
-0.818918 1.087636 5.823699 0 0 0
-0.678712 -0.193590 4.877221 0 0 0
-0.797567 -0.387659 5.836387 0 0 0
-0.797567 -0.387659 5.836387 0 0 0
-0.647467 1.581843 4.840461 0 0 0
-0.764563 1.092217 5.810676 0 0 0
-0.576276 -0.143202 4.810154 0 0 0
-0.622714 1.242717 5.558715 0 0 0
-0.610684 1.237952 5.584324 0 0 0
-0.500735 1.616184 4.815620 0 0 0
-0.441858 0.692846 4.183971 0 0 0
-0.509521 1.502581 5.085292 0 0 0
-0.509521 1.502581 5.085292 0 0 0
-0.469572 1.551192 4.951389 0 0 0
-0.240719 -0.359640 2.503839 0 0 0
-0.288902 0.562584 3.383728 0 0 0
-0.663724 -1.421075 8.032412 0 0 0
-0.401514 1.563993 4.966476 0 0 0
-0.436996 1.300323 5.454495 0 0 0
-0.394617 1.493942 5.083960 0 0 0
-0.274542 -0.350442 3.763074 0 0 0
-0.313308 1.636752 4.850357 0 0 0
-0.379115 -0.533098 5.964497 0 0 0
-0.300547 0.242497 4.775845 0 0 0
-0.289844 0.085155 4.702845 0 0 0
-0.253001 -1.074753 4.756193 0 0 0
-0.019542 -0.094815 1.972143 0 0 0
-0.239109 0.261091 4.783090 0 0 0
-0.260020 1.399049 5.331428 0 0 0
-0.258354 1.411664 5.305862 0 0 0
-0.266339 -0.313530 5.569697 0 0 0
-0.242391 1.531087 5.078070 0 0 0
-0.039183 0.043324 1.475629 0 0 0
-0.221317 -0.071542 4.780895 0 0 0
-0.232613 1.429947 5.287826 0 0 0
-0.249945 -0.794958 5.790503 0 0 0
-0.229478 -0.813760 5.798778 0 0 0
-0.227484 1.218220 5.748775 0 0 0
-0.174270 0.139931 4.728924 0 0 0
-0.199717 1.282508 5.604994 0 0 0
-0.195287 1.162709 5.611299 0 0 0
-0.122465 0.269619 4.762584 0 0 0
-0.100758 -0.299772 5.533169 0 0 0
-0.100758 -0.299772 5.533169 0 0 0
-0.048655 1.403374 5.425833 0 0 0
-0.033659 0.119781 4.749018 0 0 0
-0.014856 1.574049 5.082304 0 0 0
-0.001672 1.566730 5.078205 0 0 0
-0.000049 0.534325 4.933850 0 0 0
0.022667 0.112894 4.772096 0 0 0
0.053882 -1.325550 7.715563 0 0 0
0.043343 0.044299 4.773642 0 0 0
0.075854 -0.496595 6.250806 0 0 0
0.081463 -0.536045 6.316352 0 0 0
0.070462 0.977252 5.169766 0 0 0
0.073575 1.122017 5.214350 0 0 0
0.118304 -0.512712 6.261398 0 0 0
0.095416 0.164917 4.798438 0 0 0
0.095416 0.164917 4.798438 0 0 0
0.157498 -1.354840 7.748805 0 0 0
0.173306 -1.371953 7.746503 0 0 0
0.158450 -0.474277 6.194815 0 0 0
0.162635 1.109013 5.138980 0 0 0
0.204934 -0.466777 6.175840 0 0 0
0.173362 0.543874 4.936716 0 0 0
0.184695 1.118324 5.127145 0 0 0
0.188140 1.410435 5.104959 0 0 0
0.207073 1.554167 5.059417 0 0 0
0.225567 1.522557 5.057082 0 0 0
0.149942 -0.183324 3.464738 0 0 0
0.245510 0.132978 4.872822 0 0 0
0.262044 1.466355 5.051829 0 0 0
0.267655 0.304588 4.891343 0 0 0
0.291347 1.499278 5.044113 0 0 0
0.299599 0.235575 4.889395 0 0 0
0.326488 0.616689 4.982124 0 0 0
0.365521 1.304861 5.078286 0 0 0
0.365627 0.400885 4.937945 0 0 0
0.365176 0.270404 4.925799 0 0 0
0.383454 0.883750 5.050110 0 0 0
0.385214 1.637511 5.060122 0 0 0
0.377678 0.322033 4.935444 0 0 0
0.390755 1.526188 5.032297 0 0 0
0.399118 1.669035 5.027018 0 0 0
0.588864 -0.581063 7.147170 0 0 0
0.429824 1.468072 5.039881 0 0 0
0.428539 0.110946 4.964591 0 0 0
0.449132 0.665225 5.022838 0 0 0
0.449132 0.665225 5.022838 0 0 0
0.441327 1.692570 4.956974 0 0 0
0.441327 1.692570 4.956974 0 0 0
0.481099 1.640865 5.074595 0 0 0
0.483139 1.078244 5.076400 0 0 0
0.488441 1.506456 5.057747 0 0 0
0.492448 0.909127 5.068512 0 0 0
0.506795 1.019715 5.080712 0 0 0
0.505583 0.120046 5.023973 0 0 0
0.511799 0.768500 5.054859 0 0 0
0.517851 1.152249 5.085064 0 0 0
0.522579 0.837660 5.078851 0 0 0
0.526097 1.053829 5.082555 0 0 0
0.526097 1.053829 5.082555 0 0 0
0.531305 1.475903 5.068231 0 0 0
0.532950 1.592597 5.065635 0 0 0
0.531875 0.325759 5.016185 0 0 0
0.774781 -0.681660 7.267104 0 0 0
0.541582 -0.005411 5.091191 0 0 0
0.542195 0.709299 5.061333 0 0 0
0.542195 0.709299 5.061333 0 0 0
0.545924 1.423060 5.084535 0 0 0
0.549350 0.820191 5.081801 0 0 0
0.551556 0.662714 5.060272 0 0 0
0.569878 0.964317 5.100024 0 0 0
0.569625 0.188701 5.044729 0 0 0
0.827860 -1.048983 7.273870 0 0 0
0.576131 0.301643 5.049097 0 0 0
0.576131 0.301643 5.049097 0 0 0
0.582550 1.507461 5.103521 0 0 0
0.589272 1.460548 5.113626 0 0 0
0.860488 -0.607743 7.109790 0 0 0
0.635222 0.905943 5.141784 0 0 0
0.635222 0.905943 5.141784 0 0 0
0.634308 1.295131 5.146421 0 0 0
0.649162 0.855469 5.138906 0 0 0
96.170099 -37.719673 793.119990 0 0 0
0.654040 0.312403 5.108733 0 0 0
0.956350 -1.008829 7.322153 0 0 0
0.678380 0.944551 5.166385 0 0 0
0.687988 0.651333 5.136094 0 0 0
0.705536 0.852570 5.198062 0 0 0
0.714561 0.373961 5.161633 0 0 0
0.714561 0.373961 5.161633 0 0 0
0.726619 0.608399 5.167277 0 0 0
0.733271 0.753689 5.203113 0 0 0
0.792203 0.996360 5.252662 0 0 0
0.792437 1.641812 5.240872 0 0 0
0.871267 1.338597 5.381947 0 0 0
0.910699 1.244714 5.417527 0 0 0
0.988001 -0.053402 5.859502 0 0 0
0.988001 -0.053402 5.859502 0 0 0
2.452382 -0.011687 14.116041 0 0 0
4.575004 0.196254 26.721229 0 0 0
1.027617 1.460674 5.641917 0 0 0
0.659267 -0.117100 3.642297 0 0 0
0.514496 0.064057 2.096791 0 0 0
1.029343 1.522105 5.537357 0 0 0
1.140574 0.550766 6.009518 0 0 0
1.175541 0.691647 6.049631 0 0 0
1.063065 -0.359050 5.301422 0 0 0
1.190773 0.155941 5.912041 0 0 0
1.266658 1.196199 6.285601 0 0 0
1.207447 0.061640 5.917292 0 0 0
1.257380 -0.093888 5.964137 0 0 0
1.252105 -0.071303 5.935725 0 0 0
1.342984 0.998412 6.189796 0 0 0
1.311620 0.190721 5.982529 0 0 0
1.316123 -0.103897 5.980927 0 0 0
1.354273 0.701759 6.110322 0 0 0
0.262504 0.150555 1.178567 0 0 0
1.386590 1.282357 6.190140 0 0 0
1.360792 0.405585 6.057886 0 0 0
1.375656 -0.225985 6.103931 0 0 0
1.430864 1.122361 6.311478 0 0 0
1.427180 0.384639 6.121325 0 0 0
1.508845 1.275879 6.237532 0 0 0
1.496928 0.317664 6.148338 0 0 0
1.499901 0.337933 6.156337 0 0 0
1.580971 0.696850 6.286649 0 0 0
1.707511 0.631468 6.418019 0 0 0
1.172589 0.702913 3.774061 0 0 0
6.232429 4.799038 19.886042 0 0 0
0.492686 0.452030 1.535903 0 0 0
0.990733 -0.616130 3.117085 0 0 0
0.508760 0.445787 1.555225 0 0 0
2.781063 -1.675497 8.089850 0 0 0
1.891572 1.102342 4.594746 0 0 0
0.431054 0.172857 1.052985 0 0 0
2.129629 -1.069522 5.035795 0 0 0
2.100868 -0.915473 4.927169 0 0 0
3.093451 1.223051 6.822600 0 0 0
3.042431 1.307238 6.691107 0 0 0
3.088242 1.325876 6.533445 0 0 0
3.014963 1.473636 6.260828 0 0 0
3.036059 1.490927 6.276513 0 0 0
3.036059 1.490927 6.276513 0 0 0
0.517272 0.333441 1.023002 0 0 0
1.107368 0.077126 1.857911 0 0 0
-2.807770 1.323633 4.564393 0 0 0
-2.742603 1.365852 4.502057 0 0 0
-2.879201 1.229686 4.732421 0 0 0
-2.970511 1.127152 4.918305 0 0 0
-3.136888 0.927555 5.285526 0 0 0
-2.669536 1.338655 4.568733 0 0 0
-2.657720 1.340435 4.577805 0 0 0
-3.106937 0.865922 5.431804 0 0 0
-2.789326 1.034262 5.208846 0 0 0
-2.603078 1.185281 4.964400 0 0 0
-2.789687 0.958154 5.381718 0 0 0
-2.693405 1.039685 5.248128 0 0 0
-2.504217 1.185728 5.002997 0 0 0
-2.563231 1.083054 5.195599 0 0 0
-2.408549 1.191824 5.014144 0 0 0
-3.933013 -0.521472 8.190079 0 0 0
-2.121187 1.520059 4.420626 0 0 0
-2.121187 1.520059 4.420626 0 0 0
-2.350072 1.252274 4.900357 0 0 0
-3.032302 0.433979 6.409093 0 0 0
-1.633540 -0.196088 3.542773 0 0 0
-3.029309 0.426665 6.472736 0 0 0
-5.082352 2.394315 11.142341 0 0 0
-2.352355 1.125643 5.191540 0 0 0
-2.396896 0.988932 5.503475 0 0 0
-1.946171 1.527571 4.491673 0 0 0
-2.830369 0.236007 6.911578 0 0 0
-1.833785 1.523738 4.539572 0 0 0
-2.296705 0.880142 5.749756 0 0 0
-10.122525 7.329444 25.270080 0 0 0
-2.179686 0.959193 5.642645 0 0 0
-1.848752 1.349745 4.926578 0 0 0
-1.726931 1.488984 4.643661 0 0 0
-1.726931 1.488984 4.643661 0 0 0
-1.639413 1.494712 4.645296 0 0 0
-2.176930 -1.068377 6.177705 0 0 0
-1.557854 1.536930 4.596436 0 0 0
-1.539595 1.562047 4.549876 0 0 0
-2.191820 -1.438647 6.849570 0 0 0
-1.846755 0.825841 6.051241 0 0 0
-1.457106 1.461631 4.789574 0 0 0
-2.018946 -1.331299 6.746937 0 0 0
-1.462393 1.411044 4.916903 0 0 0
-1.387079 1.449370 4.808039 0 0 0
-1.583244 1.105609 5.536269 0 0 0
-1.718599 -0.703154 6.048788 0 0 0
-1.665754 -0.679780 5.997512 0 0 0
-1.899348 -1.144562 6.855708 0 0 0
-7.462302 -5.256756 27.083802 0 0 0
-1.876660 -1.154475 6.860359 0 0 0
-1.514322 -0.178851 5.535065 0 0 0
-1.634229 -0.803505 6.101948 0 0 0
-1.185115 1.468970 4.280350 0 0 0
-1.439136 1.160506 5.461093 0 0 0
-1.098780 -0.610453 4.338664 0 0 0
-1.329033 0.024810 5.390913 0 0 0
-1.474168 0.845117 6.162944 0 0 0
-1.721049 -1.439655 7.269084 0 0 0
-1.263758 0.042546 5.348346 0 0 0
-1.263758 0.042546 5.348346 0 0 0
-1.235632 1.279478 5.251116 0 0 0
-1.093495 1.549706 4.733829 0 0 0
-1.333139 1.028369 5.791760 0 0 0
-1.196863 0.028045 5.303769 0 0 0
-1.333837 0.967705 5.912658 0 0 0
-1.099864 1.481119 4.883668 0 0 0
-1.216094 1.145059 5.571104 0 0 0
-1.571978 -1.507218 7.490604 0 0 0
-1.552445 -1.474258 7.496014 0 0 0
-1.327392 -0.855936 6.443946 0 0 0
-1.719420 1.007289 8.319409 0 0 0
-1.522057 -1.419696 7.468704 0 0 0
-1.078830 1.278327 5.331870 0 0 0
-1.653125 0.832730 7.697117 0 0 0
-1.516607 -1.485903 7.540137 0 0 0
-1.177085 1.006666 5.888974 0 0 0
-1.316222 -0.881885 6.596561 0 0 0
-1.140399 1.041033 5.811606 0 0 0
-1.079457 1.183023 5.541461 0 0 0
-0.997970 -0.381074 5.199028 0 0 0
-1.030324 1.222851 5.445606 0 0 0
-0.975397 0.199105 5.162672 0 0 0
-0.956288 -0.152960 5.089211 0 0 0
-1.174099 -0.664064 6.532922 0 0 0
-0.865290 1.511013 4.914249 0 0 0
-1.339102 -1.483140 7.640965 0 0 0
-0.889739 1.354450 5.208634 0 0 0
-0.889739 1.354450 5.208634 0 0 0
-0.860155 0.275532 5.086804 0 0 0
-0.842118 0.056584 4.991558 0 0 0
-0.818074 1.526134 4.897241 0 0 0
-1.255509 -1.465762 7.731018 0 0 0
-0.809432 1.424567 5.108959 0 0 0
-0.758099 1.580747 4.778894 0 0 0
-0.813311 1.373958 5.222797 0 0 0
-0.754623 -0.092675 4.872570 0 0 0
-0.781503 1.450848 5.069838 0 0 0
-0.768170 1.445942 5.080923 0 0 0
-0.948352 -0.782318 6.306484 0 0 0
-1.009614 -1.117582 6.733111 0 0 0
-1.160985 -1.485453 7.826747 0 0 0
-0.818733 -0.726816 5.562276 0 0 0
-1.109521 -1.535709 7.824652 0 0 0
-0.706827 1.485356 5.025257 0 0 0
-0.913337 -1.127678 6.758378 0 0 0
-0.643078 -0.076315 4.776628 0 0 0
-0.893412 -1.107902 6.790886 0 0 0
-0.631368 -0.106770 4.809908 0 0 0
-0.783796 1.048475 6.075190 0 0 0
-0.754788 1.021441 5.856184 0 0 0
-1.006612 -1.422557 7.892754 0 0 0
-0.604383 -0.020742 4.751309 0 0 0
-0.635380 1.488732 5.016970 0 0 0
-0.637934 1.425352 5.156789 0 0 0
-0.637934 1.425352 5.156789 0 0 0
-0.588168 1.544813 4.919750 0 0 0
-0.311595 -0.532724 2.560496 0 0 0
-0.745205 -0.827754 6.377832 0 0 0
-1.051432 0.537740 10.490113 0 0 0
-0.627282 1.001630 6.020649 0 0 0
-0.410446 0.301943 4.823988 0 0 0
-0.396032 0.074002 4.704614 0 0 0
-0.395489 0.196269 4.768248 0 0 0
-0.410490 1.569138 4.943794 0 0 0
-0.476355 -0.383322 5.817452 0 0 0
-0.476355 -0.383322 5.817452 0 0 0
-0.452566 1.268784 5.549676 0 0 0
-0.377577 0.051573 4.716400 0 0 0
-0.377577 0.051573 4.716400 0 0 0
-0.647401 2.022763 7.993594 0 0 0
-0.446401 -0.411385 5.817585 0 0 0
-0.385884 1.521630 5.063462 0 0 0
-0.435764 -0.639608 5.908279 0 0 0
-0.362620 1.230143 5.639321 0 0 0
-0.302295 1.623965 4.846211 0 0 0
-0.302295 1.623965 4.846211 0 0 0
-0.261016 0.104950 4.706607 0 0 0
-0.282618 1.352116 5.443719 0 0 0
-0.283837 1.164096 5.848535 0 0 0
-0.255822 1.381596 5.384275 0 0 0
-0.269458 -0.793309 5.779599 0 0 0
-0.221728 0.417266 4.886869 0 0 0
-0.248020 1.386809 5.440198 0 0 0
-0.233578 1.243643 5.662104 0 0 0
-0.171548 1.056567 4.308075 0 0 0
-0.200194 -0.774057 5.833017 0 0 0
-0.141670 0.418775 4.849040 0 0 0
-0.121823 0.132215 4.728641 0 0 0
-0.120720 0.931270 4.824503 0 0 0
-0.105022 0.233027 4.769096 0 0 0
-0.105022 0.233027 4.769096 0 0 0
-0.104112 1.588899 5.000390 0 0 0
-0.090765 0.093347 4.732011 0 0 0
-0.089558 1.374218 5.460011 0 0 0
-0.071696 0.087999 4.736364 0 0 0
-0.068500 0.326611 4.818068 0 0 0
-0.044495 -1.397345 7.777580 0 0 0
-0.027012 1.656441 4.903341 0 0 0
-0.027012 1.656441 4.903341 0 0 0
-0.010465 -0.042229 4.793997 0 0 0
-0.004854 1.556379 5.109606 0 0 0
-0.004854 1.556379 5.109606 0 0 0
0.008350 1.665867 4.887791 0 0 0
0.019149 0.535951 4.925691 0 0 0
0.055249 0.200110 4.785615 0 0 0
0.025379 -0.043879 1.518810 0 0 0
0.060520 0.349190 4.826338 0 0 0
0.088759 -0.603532 6.406063 0 0 0
0.088759 -0.603532 6.406063 0 0 0
0.088759 -0.603532 6.406063 0 0 0
0.073640 0.050172 4.780384 0 0 0
0.114560 -0.410195 6.117386 0 0 0
0.112875 1.296551 5.189881 0 0 0
0.147612 -0.658128 6.493418 0 0 0
0.117916 0.913010 5.096872 0 0 0
0.145650 -0.450451 6.166174 0 0 0
0.116332 0.193647 4.812803 0 0 0
0.133507 0.219939 4.817891 0 0 0
0.139801 0.142658 4.812900 0 0 0
0.201862 -0.444505 6.156983 0 0 0
0.176474 0.354418 4.856420 0 0 0
0.190091 1.358967 5.108147 0 0 0
0.190091 1.358967 5.108147 0 0 0
0.195114 1.148891 5.123485 0 0 0
0.201896 1.440925 5.084931 0 0 0
0.223012 1.489903 5.059300 0 0 0
0.228837 0.359816 4.877152 0 0 0
0.257143 1.425258 5.064434 0 0 0
0.273741 0.846253 5.061737 0 0 0
0.270597 0.283694 4.889358 0 0 0
0.312476 1.338045 5.080398 0 0 0
0.334757 1.671043 4.969576 0 0 0
0.335952 0.302992 4.936686 0 0 0
0.364438 1.144978 5.081439 0 0 0
0.376404 0.523648 4.969360 0 0 0
0.389772 1.671298 4.996679 0 0 0
0.389772 1.671298 4.996679 0 0 0
0.597134 -0.871702 7.518053 0 0 0
0.402505 0.931786 5.056019 0 0 0
0.402505 0.931786 5.056019 0 0 0
0.402505 0.931786 5.056019 0 0 0
0.606720 -0.818342 7.507484 0 0 0
0.580437 -0.623123 7.180504 0 0 0
0.446126 1.549184 5.043020 0 0 0
0.446126 1.549184 5.043020 0 0 0
0.447309 1.565304 5.025599 0 0 0
0.694807 -0.807281 7.395806 0 0 0
0.481151 0.860853 5.062747 0 0 0
0.711403 -0.782494 7.408576 0 0 0
0.717432 -0.716989 7.358389 0 0 0
0.732856 -0.831938 7.416853 0 0 0
0.511708 1.137612 5.085517 0 0 0
0.511708 1.137612 5.085517 0 0 0
0.777161 -1.003464 7.307917 0 0 0
0.542263 0.296206 5.006140 0 0 0
0.557086 0.952114 5.102631 0 0 0
0.570712 1.633755 5.141168 0 0 0
0.565237 0.214987 5.062696 0 0 0
0.826286 -0.719082 7.222403 0 0 0
0.583092 0.242471 5.056833 0 0 0
0.841832 -0.788438 7.240139 0 0 0
0.648810 1.704656 5.516159 0 0 0
0.867895 -1.122628 7.332361 0 0 0
0.609262 0.733873 5.103846 0 0 0
0.612007 0.830995 5.124908 0 0 0
0.612315 1.215205 5.119909 0 0 0
0.612315 1.215205 5.119909 0 0 0
0.597860 1.695408 4.999139 0 0 0
0.622780 0.686661 5.108392 0 0 0
0.622400 0.397503 5.087534 0 0 0
0.633094 0.719422 5.113656 0 0 0
0.919733 -1.018669 7.338147 0 0 0
0.647877 0.985235 5.139177 0 0 0
0.913841 -0.718289 7.120760 0 0 0
0.983661 -0.953917 7.286344 0 0 0
0.694471 0.696916 5.140919 0 0 0
0.716322 1.624340 5.168763 0 0 0
1.039239 -1.078418 7.343645 0 0 0
0.803092 0.764897 5.266229 0 0 0
0.808707 0.651480 5.241482 0 0 0
0.834312 1.111194 5.294767 0 0 0
0.859825 1.578620 5.344042 0 0 0
0.860615 -0.938816 5.360784 0 0 0
0.922229 0.985314 5.402075 0 0 0
0.968490 1.495536 5.614453 0 0 0
0.462816 0.306997 2.671206 0 0 0
1.081683 1.387775 5.837067 0 0 0
1.026930 1.540325 5.529723 0 0 0
1.026930 1.540325 5.529723 0 0 0
1.203882 0.914594 6.121988 0 0 0
1.183098 0.047251 5.896392 0 0 0
1.185556 0.004432 5.891517 0 0 0
1.250900 1.098514 6.194938 0 0 0
1.196427 0.126373 5.914816 0 0 0
1.237224 0.005119 5.916486 0 0 0
1.268861 0.527701 6.031410 0 0 0
1.437335 -2.266294 6.730835 0 0 0
1.344246 1.190260 6.294512 0 0 0
1.309443 0.760007 6.109473 0 0 0
1.468578 1.119016 6.353362 0 0 0
1.410508 1.309797 6.098436 0 0 0
1.451090 0.690811 6.126224 0 0 0
1.561380 0.551706 6.236289 0 0 0
0.361570 -0.003229 1.335014 0 0 0
0.465562 -0.111201 1.557092 0 0 0
1.837049 0.635383 6.134987 0 0 0
0.543649 0.520120 1.774681 0 0 0
2.730003 -2.947297 8.762553 0 0 0
0.773367 0.750811 2.478180 0 0 0
1.047240 -0.686222 3.165982 0 0 0
2.290264 1.248176 6.618363 0 0 0
13.316271 -5.776071 37.342153 0 0 0
0.330858 0.172831 0.905166 0 0 0
4.966252 -3.021262 13.285345 0 0 0
2.729894 -0.756220 5.701639 0 0 0
3.072684 1.514586 6.222481 0 0 0
2.540062 -0.645768 5.061217 0 0 0
1.766426 0.653865 3.450949 0 0 0
-3.969089 0.239157 6.439934 0 0 0
-1.767529 -0.074326 2.889638 0 0 0
-3.018386 1.089822 4.991199 0 0 0
-3.023997 1.037935 5.092111 0 0 0
-2.663582 1.385186 4.483578 0 0 0
-3.444577 0.624020 5.810693 0 0 0
-3.591783 0.467654 6.102206 0 0 0
-3.125793 0.935012 5.320576 0 0 0
-2.877547 1.094232 5.018360 0 0 0
-2.534866 1.440073 4.426230 0 0 0
-2.957753 1.014715 5.183331 0 0 0
-4.458750 -0.482771 7.841991 0 0 0
-2.735880 1.240073 4.813596 0 0 0
-3.019416 0.918152 5.364896 0 0 0
-3.078905 0.821797 5.538042 0 0 0
-3.019600 0.873726 5.468109 0 0 0
-2.492221 1.349956 4.630879 0 0 0
-2.589360 1.233975 4.860538 0 0 0
-2.861996 0.968851 5.376703 0 0 0
-2.871580 0.896010 5.489859 0 0 0
-3.321269 0.358357 6.484541 0 0 0
-4.812248 2.018161 9.240523 0 0 0
-2.228531 1.488281 4.451133 0 0 0
-2.644077 1.010699 5.323784 0 0 0
-2.352499 1.335857 4.742014 0 0 0
-2.352499 1.335857 4.742014 0 0 0
-2.425105 1.226297 4.937074 0 0 0
-2.208516 1.434283 4.578840 0 0 0
-2.180524 1.434046 4.574135 0 0 0
-2.495765 1.048460 5.298280 0 0 0
-2.430632 1.080497 5.258879 0 0 0
-2.963911 0.365177 6.626693 0 0 0
-2.498808 0.895704 5.604149 0 0 0
-2.783329 0.506396 6.328391 0 0 0
-2.715350 0.527590 6.342001 0 0 0
-2.605676 0.585723 6.274358 0 0 0
-3.103152 -0.082937 7.510342 0 0 0
-1.894463 1.479450 4.595678 0 0 0
-3.353881 -0.441928 8.238858 0 0 0
-1.927618 1.210377 5.171702 0 0 0
-1.767599 1.412080 4.774584 0 0 0
-2.275086 0.613217 6.278328 0 0 0
-1.957032 -0.575618 5.722100 0 0 0
-2.092876 -0.995565 6.125300 0 0 0
-1.987898 -0.899938 6.131081 0 0 0
-2.011085 -0.973426 6.353064 0 0 0
-1.495660 1.460306 4.770582 0 0 0
-2.008690 -1.388362 6.848183 0 0 0
-1.291695 1.222730 4.200873 0 0 0
-2.038716 -1.487954 7.048228 0 0 0
-1.936192 -1.178111 6.801401 0 0 0
-1.358994 1.483864 4.798640 0 0 0
-1.358994 1.483864 4.798640 0 0 0
-1.323387 1.538227 4.688402 0 0 0
-1.284032 1.534320 4.723827 0 0 0
-1.257751 1.480181 4.854312 0 0 0
-1.363041 1.235298 5.318187 0 0 0
-1.240489 1.469622 4.857686 0 0 0
-84.094228 -40.103062 329.298624 0 0 0
-1.359705 1.143325 5.531204 0 0 0
-1.414305 0.975768 5.889176 0 0 0
-1.098395 1.578111 4.671655 0 0 0
-1.714046 -1.459143 7.341803 0 0 0
-1.216124 1.194074 5.434210 0 0 0
-1.173149 -0.054144 5.330282 0 0 0
-1.259996 1.046939 5.774596 0 0 0
-1.580170 -1.641661 7.565995 0 0 0
-1.557880 -1.713550 7.557172 0 0 0
-1.050159 -0.024345 5.223386 0 0 0
-1.157810 0.939495 5.967520 0 0 0
-1.140180 0.936186 5.918849 0 0 0
-1.020993 1.296211 5.297549 0 0 0
-1.197907 -0.773388 6.296782 0 0 0
-1.172000 -0.792909 6.310447 0 0 0
-0.920220 -0.162800 5.055571 0 0 0
-0.915605 -0.028978 5.058108 0 0 0
-1.155346 -0.550098 6.394979 0 0 0
-1.404821 -1.889813 7.947869 0 0 0
-1.146805 -0.947826 6.801694 0 0 0
-1.146805 -0.947826 6.801694 0 0 0
-0.782515 1.465902 5.046464 0 0 0
-0.713216 1.594464 4.806170 0 0 0
-0.676556 -0.042665 4.779527 0 0 0
-0.678107 1.497021 4.984655 0 0 0
-0.640363 1.503451 4.998195 0 0 0
-0.760598 -0.628691 6.032420 0 0 0
-0.635706 0.472751 5.140062 0 0 0
-1.000473 -1.875339 8.092416 0 0 0
-0.211357 0.164464 2.379524 0 0 0
-0.617793 1.417475 5.211631 0 0 0
-0.922925 -1.814260 8.158812 0 0 0
-0.595110 1.254613 5.526584 0 0 0
-0.484615 0.114713 4.725323 0 0 0
-0.584859 1.160285 5.728777 0 0 0
-0.575663 1.010035 5.982001 0 0 0
-0.511264 1.406394 5.288375 0 0 0
-0.471393 1.241303 5.604207 0 0 0
-0.298742 1.400613 5.319301 0 0 0
-0.287991 1.423414 5.300660 0 0 0
-0.150230 -0.617262 3.727587 0 0 0
-0.256180 1.476156 5.165710 0 0 0
-0.181388 0.410106 4.844848 0 0 0
-0.201446 1.236103 5.715312 0 0 0
-0.089665 0.190441 4.757697 0 0 0
-0.100535 1.380851 5.430969 0 0 0
-0.087781 0.966574 5.318176 0 0 0
-0.087781 0.966574 5.318176 0 0 0
-0.079027 1.459753 5.267394 0 0 0
-0.038852 1.487972 5.241111 0 0 0
-0.047913 -1.334748 7.671862 0 0 0
-0.032322 -0.293093 5.520887 0 0 0
0.003647 0.361273 4.837851 0 0 0
0.038333 0.532708 4.920145 0 0 0
0.082825 0.069858 4.783639 0 0 0
0.095161 0.477797 4.894994 0 0 0
0.100705 0.316950 4.824134 0 0 0
0.091267 -0.100220 3.551406 0 0 0
0.145871 0.468852 4.904586 0 0 0
0.158892 1.233205 5.153378 0 0 0
0.186327 1.309286 5.124611 0 0 0
0.218708 0.076743 4.846066 0 0 0
0.223060 0.497414 4.938659 0 0 0
0.241638 0.661437 4.982089 0 0 0
0.253703 0.591939 4.963146 0 0 0
0.265457 1.587804 5.056476 0 0 0
0.286658 1.573906 5.032363 0 0 0
0.421252 -0.515912 7.033435 0 0 0
0.332075 1.569659 5.038856 0 0 0
0.340269 0.896274 5.052789 0 0 0
0.625122 -0.866938 7.477683 0 0 0
0.425716 1.199629 5.080188 0 0 0
0.425716 1.199629 5.080188 0 0 0
0.641276 -0.777917 7.469552 0 0 0
0.642852 -0.933038 7.443438 0 0 0
0.435793 0.458514 4.963696 0 0 0
0.448696 1.446415 5.062588 0 0 0
0.448696 1.446415 5.062588 0 0 0
0.647334 -0.312205 7.000022 0 0 0
0.473032 1.590504 5.046405 0 0 0
0.472662 0.249130 4.977078 0 0 0
0.483583 1.186013 5.092461 0 0 0
0.482261 0.530482 5.019695 0 0 0
0.488071 0.731444 5.045774 0 0 0
0.493175 1.329381 5.085125 0 0 0
0.490855 0.264721 4.992824 0 0 0
0.499294 0.172158 4.999133 0 0 0
0.737065 -0.894818 7.360825 0 0 0
0.508199 0.947606 5.074522 0 0 0
0.761724 -0.812929 7.368109 0 0 0
0.529842 1.458386 5.088909 0 0 0
0.529842 1.458386 5.088909 0 0 0
0.763147 -0.968967 7.332339 0 0 0
0.851841 -0.761996 7.227034 0 0 0
0.610865 1.133623 5.106589 0 0 0
0.862878 -0.582994 7.075325 0 0 0
0.649081 0.671420 5.116067 0 0 0
0.924591 -0.685551 7.185237 0 0 0
0.657036 0.631965 5.114424 0 0 0
0.658113 0.737146 5.128873 0 0 0
0.913881 -0.717064 7.116262 0 0 0
0.679954 1.252929 5.174035 0 0 0
0.801969 0.745369 5.280001 0 0 0
0.801969 0.745369 5.280001 0 0 0
1.122594 -1.011107 7.275909 0 0 0
1.203125 -0.850873 6.885127 0 0 0
0.430204 0.508331 2.398703 0 0 0
0.266125 -0.295183 1.464460 0 0 0
1.067004 0.777167 5.682265 0 0 0
1.530207 -2.575773 7.541292 0 0 0
1.206524 0.339361 5.950485 0 0 0
1.245762 0.613104 6.040160 0 0 0
1.283737 1.053627 6.189116 0 0 0
1.247136 0.244587 5.985171 0 0 0
1.000519 -0.981783 4.775439 0 0 0
1.316320 -0.082461 5.984461 0 0 0
1.381115 0.643877 6.120703 0 0 0
1.380826 0.508231 6.085087 0 0 0
1.525085 0.522956 6.202553 0 0 0
0.284960 0.425765 1.108032 0 0 0
1.700492 0.492341 6.558770 0 0 0
1.759252 0.395372 6.604473 0 0 0
1.603685 -0.306977 5.853375 0 0 0
1.895956 0.707662 6.748805 0 0 0
0.859888 0.528406 2.733328 0 0 0
0.586342 0.579537 1.690620 0 0 0
2.606694 1.267811 6.618207 0 0 0
2.654255 1.310771 6.514896 0 0 0
3.193706 1.564941 7.635414 0 0 0
0.697411 -0.252282 1.611601 0 0 0
0.933757 -0.516368 2.217146 0 0 0
2.734819 1.308089 6.485231 0 0 0
0.705272 -0.244378 1.575919 0 0 0
2.844311 1.309210 6.573885 0 0 0
3.110445 -0.220350 6.959253 0 0 0
3.680339 -1.063437 8.031476 0 0 0
2.784107 -0.785998 5.884891 0 0 0
1.194680 -0.566403 2.512114 0 0 0
1.512479 -0.023976 3.069291 0 0 0
3.220879 -0.840171 6.633860 0 0 0
0.951347 -0.417913 1.887571 0 0 0
3.210963 1.445183 6.366896 0 0 0
0.671197 -0.047116 1.174778 0 0 0
0.669131 -0.208577 1.250981 0 0 0
-3.028622 1.092218 4.967663 0 0 0
-2.775463 1.328249 4.554978 0 0 0
-3.904409 0.235395 6.490046 0 0 0
-3.154320 0.833324 5.490757 0 0 0
-2.518593 1.406145 4.464966 0 0 0
-3.082806 0.821785 5.543393 0 0 0
-3.394601 0.332514 6.510559 0 0 0
-3.243786 0.407567 6.429938 0 0 0
-2.288637 1.370840 4.682188 0 0 0
-2.483894 1.039892 5.345105 0 0 0
-2.537997 0.915509 5.584860 0 0 0
-3.399042 -0.102405 7.501179 0 0 0
-2.031592 1.369555 4.801258 0 0 0
-2.826395 0.245415 6.836222 0 0 0
-3.119556 -0.105730 7.615935 0 0 0
-1.813270 1.404793 4.788713 0 0 0
-2.016038 1.056845 5.510491 0 0 0
-2.040312 0.926837 5.820467 0 0 0
-1.639739 1.489642 4.679122 0 0 0
-1.553861 1.525659 4.628626 0 0 0
-2.008199 -0.882402 6.130509 0 0 0
-1.614743 1.355218 4.957648 0 0 0
-1.502771 1.541628 4.620599 0 0 0
-2.047365 -1.063501 6.421051 0 0 0
-1.819757 -0.590833 5.993904 0 0 0
-2.039450 -1.488271 7.049886 0 0 0
-1.413035 1.428979 4.873662 0 0 0
-1.390565 1.418181 4.932865 0 0 0
-1.928402 -1.385751 6.914369 0 0 0
-1.605881 0.878473 5.998384 0 0 0
-1.284323 1.487088 4.817990 0 0 0
-1.212991 1.489961 4.829650 0 0 0
-1.187076 1.523704 4.769027 0 0 0
-1.810652 -1.543829 7.296861 0 0 0
-1.800179 -1.598584 7.324440 0 0 0
-1.177296 1.451059 4.873037 0 0 0
-1.193759 1.342932 5.191469 0 0 0
-1.173779 1.252175 5.357851 0 0 0
-1.125063 -0.123295 5.295415 0 0 0
-1.007894 1.344368 5.227848 0 0 0
-1.007894 1.344368 5.227848 0 0 0
-0.971149 -0.075988 5.128184 0 0 0
-1.361561 -1.471377 7.544506 0 0 0
-1.203771 -1.030411 6.823838 0 0 0
-1.346500 -1.837794 7.907674 0 0 0
-0.910627 1.262170 5.432219 0 0 0
-0.969894 1.030253 5.915110 0 0 0
-1.197199 -1.722289 7.694087 0 0 0
-13.789193 5.102869 78.794577 0 0 0
-0.904845 1.007401 5.973723 0 0 0
-0.861655 1.105893 5.779966 0 0 0
-0.916999 -0.629662 6.573988 0 0 0
-0.665282 1.553102 4.915830 0 0 0
-0.848697 -0.658704 6.322918 0 0 0
-0.761752 1.162560 5.661480 0 0 0
-0.797358 -0.594639 6.178643 0 0 0
-0.462500 -0.623352 3.631138 0 0 0
-0.618773 1.539758 4.930472 0 0 0
-0.596071 0.136273 4.784457 0 0 0
-0.974434 -1.839414 8.098182 0 0 0
-0.588740 1.561117 4.904420 0 0 0
-0.857452 -1.760201 8.087917 0 0 0
-0.622723 1.119142 5.932784 0 0 0
-0.477842 0.217588 4.808586 0 0 0
-0.578432 1.102173 5.771497 0 0 0
-0.535180 1.155924 5.808176 0 0 0
-0.613432 -1.641169 8.112143 0 0 0
-0.418358 -0.623706 5.920894 0 0 0
-0.380227 1.346029 5.409090 0 0 0
-0.374881 1.172940 5.781066 0 0 0
-0.369689 1.327632 6.157497 0 0 0
-0.287996 1.629861 4.890244 0 0 0
-0.285508 1.451302 5.240876 0 0 0
-0.278009 1.318110 5.512116 0 0 0
-0.185449 0.069459 4.710735 0 0 0
-0.182723 0.445703 4.903776 0 0 0
-0.164642 1.310537 5.589043 0 0 0
-0.092565 1.413575 5.384424 0 0 0
-0.073625 0.115014 4.735633 0 0 0
-0.066537 0.468501 4.919247 0 0 0
-0.060713 0.950628 5.279420 0 0 0
-0.043366 1.360982 5.522351 0 0 0
0.000031 0.127997 4.770960 0 0 0
0.010600 0.211403 4.788148 0 0 0
0.020954 1.051680 5.251008 0 0 0
0.098675 -0.053070 4.840626 0 0 0
0.232356 0.636031 4.978251 0 0 0
0.264784 0.096897 4.867420 0 0 0
0.358804 1.152826 5.083694 0 0 0
0.153223 -0.062802 1.852337 0 0 0
0.405665 1.373354 5.070872 0 0 0
0.415789 0.580892 4.980833 0 0 0
0.437990 1.591340 5.042298 0 0 0
0.654523 -0.805302 7.413934 0 0 0
0.456398 1.609381 5.026704 0 0 0
0.700289 -0.663897 7.331298 0 0 0
0.502201 0.494660 5.012407 0 0 0
0.515431 1.521803 5.062683 0 0 0
0.762011 -0.813319 7.362721 0 0 0
0.552314 0.864443 5.095115 0 0 0
0.571231 1.004220 5.109819 0 0 0
0.901141 -0.748485 7.177359 0 0 0
0.658854 1.634364 5.179943 0 0 0
0.765388 1.567028 5.353267 0 0 0
0.485924 -0.481859 2.700203 0 0 0
0.994347 0.075090 5.827265 0 0 0
1.019602 -0.046757 5.872857 0 0 0
1.032330 1.349386 5.610517 0 0 0
3.425574 -0.413114 12.961517 0 0 0
1.071464 1.539300 5.505624 0 0 0
1.283670 1.053343 6.187309 0 0 0
1.335734 0.305612 6.012703 0 0 0
1.501109 -1.336155 6.051806 0 0 0
1.389543 0.511783 6.099881 0 0 0
1.413686 -0.279861 6.157949 0 0 0
1.421750 0.226505 6.074395 0 0 0
1.434879 0.626523 6.143143 0 0 0
1.483817 1.000750 6.278368 0 0 0
1.597566 -0.504930 6.706617 0 0 0
1.539001 1.174859 6.421574 0 0 0
1.513752 0.237823 6.188000 0 0 0
1.528942 0.856613 6.250425 0 0 0
1.700681 0.491251 6.559590 0 0 0
1.666045 -0.534979 6.346341 0 0 0
2.127821 0.271151 8.026756 0 0 0
0.475624 0.301177 1.659112 0 0 0
0.682995 -0.264522 1.679005 0 0 0
2.815477 1.287384 6.622476 0 0 0
0.628260 -0.251314 1.381287 0 0 0
3.215826 -0.835309 6.618889 0 0 0
0.546858 -0.102113 1.044763 0 0 0
1.870337 -0.208704 3.548075 0 0 0
3.520768 1.324432 6.652780 0 0 0
3.520768 1.324432 6.652780 0 0 0
0.752656 -0.190047 1.368339 0 0 0
0.755488 -0.185837 1.356750 0 0 0
1.146757 0.290036 2.046654 0 0 0
1.164346 -0.315605 2.033558 0 0 0
-5.215337 -0.904348 8.486681 0 0 0
-3.382555 -0.322956 5.564539 0 0 0
-3.471620 1.182345 5.929002 0 0 0
-4.660835 -0.606162 8.034991 0 0 0
-3.092901 0.914260 5.340905 0 0 0
-3.062018 0.890414 5.407007 0 0 0
-2.489179 1.415918 4.493682 0 0 0
-2.540707 1.371650 4.591342 0 0 0
-2.547937 1.321056 4.689199 0 0 0
-3.428376 0.343509 6.496505 0 0 0
-2.606101 1.071460 5.221012 0 0 0
-3.178717 0.288587 6.722003 0 0 0
-2.147067 1.448751 4.587733 0 0 0
-2.495550 0.956077 5.487777 0 0 0
-33.767734 -18.730262 79.619273 0 0 0
-3.187765 -0.277483 7.856576 0 0 0
-1.938272 1.385732 4.802797 0 0 0
-1.940766 1.334432 4.906686 0 0 0
-1.820813 1.384198 4.829996 0 0 0
-2.171497 0.887890 5.809174 0 0 0
-2.000507 1.038370 5.525308 0 0 0
-2.000507 1.038370 5.525308 0 0 0
-1.647448 1.457412 4.714235 0 0 0
-2.046082 -0.936404 6.084722 0 0 0
-2.004475 -0.921352 6.102907 0 0 0
-2.025718 -0.987432 6.305240 0 0 0
-2.024114 -1.098460 6.459674 0 0 0
-1.483764 1.385165 4.955284 0 0 0
-1.558576 -0.559634 5.975325 0 0 0
-1.517312 -0.580095 5.973748 0 0 0
-1.170942 -0.016914 5.314050 0 0 0
-1.089286 0.088291 5.230268 0 0 0
-0.951396 -0.105662 5.093415 0 0 0
-1.030300 1.001296 5.957888 0 0 0
-1.035680 0.957178 6.036678 0 0 0
-1.123576 -0.911520 6.771435 0 0 0
-0.806137 1.181472 5.619352 0 0 0
-0.587453 1.240889 5.592956 0 0 0
-0.649621 -1.580829 8.058879 0 0 0
-0.412757 1.377931 5.303679 0 0 0
-0.412637 1.175998 5.773726 0 0 0
-0.136257 1.417850 5.355113 0 0 0
-0.007599 0.043805 4.754870 0 0 0
-0.006834 1.165389 5.312407 0 0 0
0.021169 -0.831154 3.762615 0 0 0
0.027610 0.444274 4.863610 0 0 0
0.027610 0.444274 4.863610 0 0 0
0.188978 1.222783 5.131242 0 0 0
0.228496 1.529504 5.048198 0 0 0
0.259436 0.581057 4.955430 0 0 0
0.685808 -0.786748 7.461676 0 0 0
0.793077 -0.577060 7.155574 0 0 0
0.793077 -0.577060 7.155574 0 0 0
0.601749 0.841437 5.114438 0 0 0
0.622368 1.385758 5.134413 0 0 0
0.638885 0.778490 5.111804 0 0 0
0.648214 1.651782 5.140827 0 0 0
0.844722 1.461179 5.416690 0 0 0
1.007823 -0.266868 5.973135 0 0 0
1.035924 0.057750 5.874262 0 0 0
1.101655 0.073268 5.860944 0 0 0
1.098012 1.082688 5.750523 0 0 0
1.209858 0.293623 5.961655 0 0 0
0.345772 -0.046678 1.534692 0 0 0
1.415959 -0.285935 6.191513 0 0 0
1.596886 -0.630080 6.828677 0 0 0
1.112271 0.841694 4.467809 0 0 0
0.688984 -0.257593 1.652342 0 0 0
0.710942 -0.234920 1.553118 0 0 0
3.587225 1.369966 6.675760 0 0 0
-2.983733 1.031640 5.121223 0 0 0
-4.527665 -0.655796 8.321510 0 0 0
-2.347117 1.437341 4.454525 0 0 0
-2.622657 1.033946 5.276989 0 0 0
-2.171796 1.454505 4.547085 0 0 0
-2.484893 0.988733 5.427761 0 0 0
-2.422306 0.980820 5.465731 0 0 0
-1.957341 1.383594 4.752404 0 0 0
-1.489972 0.772053 6.368594 0 0 0
-1.112341 1.515681 4.832369 0 0 0
-1.107644 1.247588 5.376517 0 0 0
-6.009148 -2.498648 29.903770 0 0 0
-1.037321 0.177792 5.211603 0 0 0
-0.855333 1.541503 4.860424 0 0 0
-1.145530 -1.021586 6.777000 0 0 0
-1.149242 -1.662414 7.829722 0 0 0
-0.825216 -1.485909 8.145329 0 0 0
-0.435920 0.110701 4.727769 0 0 0
-0.476922 1.398215 5.321259 0 0 0
-0.412506 0.073794 4.711585 0 0 0
-0.442246 1.396471 5.414184 0 0 0
-0.570005 -1.520557 8.132938 0 0 0
-0.170486 0.625967 2.925242 0 0 0
-0.254461 0.255978 4.773935 0 0 0
-0.060321 0.808422 5.178191 0 0 0
0.088560 1.680405 4.902641 0 0 0
0.236111 -1.452340 8.031268 0 0 0
0.234941 0.961540 5.071815 0 0 0
0.229098 0.444456 4.893488 0 0 0
0.362626 0.812688 5.038274 0 0 0
0.414566 1.258674 5.081771 0 0 0
0.422511 1.410988 5.056023 0 0 0
0.438325 0.402919 4.978694 0 0 0
0.457978 1.183503 5.076487 0 0 0
0.487979 0.209297 4.991892 0 0 0
0.493942 1.657060 5.058039 0 0 0
0.779943 -0.776126 7.320102 0 0 0
0.560488 0.463298 5.036901 0 0 0
0.566124 0.723905 5.080994 0 0 0
0.315802 0.145902 2.020600 0 0 0
0.650430 1.196669 5.154820 0 0 0
0.708827 0.542710 5.141650 0 0 0
0.754227 1.287889 5.245881 0 0 0
0.772365 1.182777 5.236602 0 0 0
1.105596 0.117998 5.894799 0 0 0
1.255442 0.471374 6.009013 0 0 0
1.349810 0.819345 6.148403 0 0 0
1.367390 0.202280 6.025499 0 0 0
0.445882 0.197370 1.132835 0 0 0
0.722748 -0.221715 1.500884 0 0 0
1.743918 0.451369 3.426868 0 0 0
1.145822 -0.230354 2.186718 0 0 0
0.769887 -0.167176 1.295904 0 0 0
-3.066297 1.052487 5.013730 0 0 0
-2.954964 0.987715 5.256096 0 0 0
-2.698623 1.007273 5.302203 0 0 0
-2.511903 1.023831 5.366222 0 0 0
-2.780172 0.435527 6.557089 0 0 0
-0.702060 -0.136223 2.557778 0 0 0
-0.979174 1.412084 4.990387 0 0 0
-0.980330 0.043247 5.157681 0 0 0
-0.769460 0.874530 5.259462 0 0 0
-0.327103 0.162939 4.735167 0 0 0
-0.165281 0.172319 4.734947 0 0 0
-0.177921 1.450813 5.288334 0 0 0
-0.050149 1.648710 4.919284 0 0 0
0.065812 1.463849 5.215194 0 0 0
0.229072 1.320355 5.128395 0 0 0
0.303409 1.304652 5.085689 0 0 0
0.315417 0.588780 4.967275 0 0 0
0.343086 0.651987 4.995050 0 0 0
0.402379 1.184711 5.064588 0 0 0
0.691857 -0.868092 7.397594 0 0 0
0.869713 -0.599484 7.078357 0 0 0
0.751743 1.040102 5.208049 0 0 0
1.050526 -0.234425 6.011302 0 0 0
1.277245 0.023296 5.976920 0 0 0
0.385014 -0.229998 1.352347 0 0 0
48.163182 -41.422894 176.134581 0 0 0
6.629167 -4.933734 20.849200 0 0 0
1.353049 -0.492758 3.934933 0 0 0
2.546421 1.216342 6.637352 0 0 0
3.892776 1.139296 8.977819 0 0 0
2.287121 -0.884501 4.380479 0 0 0
0.762553 -0.175045 1.328028 0 0 0
-2.674431 1.362534 4.520025 0 0 0
-1.725141 -0.206440 4.007511 0 0 0
-1.974759 1.442849 4.661258 0 0 0
-2.222832 -1.157033 6.346504 0 0 0
-2.024238 -0.835730 5.868483 0 0 0
-1.282409 1.438588 4.851292 0 0 0
-1.489440 -0.522506 5.953697 0 0 0
-1.787063 -1.751733 7.607870 0 0 0
-0.662071 -0.145134 4.797508 0 0 0
-0.304845 0.289081 4.794296 0 0 0
-0.360185 -0.789797 5.803211 0 0 0
-0.002050 0.321530 4.821006 0 0 0
0.055587 0.704540 5.024216 0 0 0
0.149710 -0.435116 6.245613 0 0 0
0.118694 0.010822 4.816715 0 0 0
0.172330 1.534758 5.081882 0 0 0
0.281813 0.467514 4.943347 0 0 0
0.416368 0.664334 5.027121 0 0 0
0.470867 1.446239 5.050329 0 0 0
0.917069 1.497908 5.526266 0 0 0
0.984055 0.589491 5.573680 0 0 0
1.325831 0.410073 6.021519 0 0 0
4.861457 -3.378263 16.900507 0 0 0
0.497379 0.345029 1.607572 0 0 0
-1.886972 -1.211273 6.889585 0 0 0
-1.783205 -1.786025 6.827864 0 0 0
-1.745389 -1.574163 7.380321 0 0 0
-1.360072 -0.692687 6.286036 0 0 0
-1.360072 -0.692687 6.286036 0 0 0
-1.033417 -1.600513 7.837131 0 0 0
-0.498082 -0.602746 6.051453 0 0 0
-0.145339 0.363739 4.846303 0 0 0
0.417270 0.283126 4.981867 0 0 0
0.507433 0.668556 5.062269 0 0 0
0.550323 0.582115 5.010118 0 0 0
0.822302 -0.880315 7.287715 0 0 0
0.595295 0.366251 5.086077 0 0 0
0.689809 0.904316 5.176388 0 0 0
1.025930 1.410284 5.664452 0 0 0
1.719743 0.494096 6.501159 0 0 0
6.066862 -4.243571 19.281263 0 0 0
6.566608 -4.389691 19.486181 0 0 0
6.566608 -4.389691 19.486181 0 0 0
0.424571 -0.090178 0.899794 0 0 0
0.742975 -0.081765 1.236173 0 0 0
-1.232045 -0.712666 6.262641 0 0 0
0.181757 1.208803 5.142631 0 0 0
0.550843 -0.291028 6.834068 0 0 0
0.428896 0.399904 4.989908 0 0 0
0.983544 0.592790 5.624878 0 0 0
1.612427 0.243916 6.344663 0 0 0
5.361310 -4.055392 18.506165 0 0 0
5.970678 -3.639913 17.854217 0 0 0
3.196490 -1.557428 9.013593 0 0 0
0.732847 0.006307 1.225967 0 0 0
0.595754 0.164795 1.168531 0 0 0
-1.363144 -0.611791 6.251193 0 0 0
-1.243756 -0.947123 6.705084 0 0 0
-1.277732 -1.706923 7.873179 0 0 0
-1.128876 -1.878820 8.030096 0 0 0
-0.920043 -1.722547 7.974979 0 0 0
0.025231 0.836074 5.282733 0 0 0
0.435988 -1.059878 7.730359 0 0 0
0.470918 1.415754 5.047529 0 0 0
0.965614 0.875589 5.450409 0 0 0
1.130545 0.275841 5.945289 0 0 0
1.173205 1.230316 5.936039 0 0 0
1.299177 0.059290 6.256887 0 0 0
1.066939 -0.946082 7.127722 0 0 0
1.046586 -0.039166 5.920317 0 0 0
1.625649 0.246873 6.493773 0 0 0
-1.434817 -0.798725 6.048958 0 0 0
0.311133 1.521897 5.020127 0 0 0
0.673579 1.467824 5.206882 0 0 0
-0.762070 1.465097 5.102013 0 0 0
-1.416803 -0.418450 5.567071 0 0 0
0.504106 0.064870 1.125306 0 0 0
-1.067116 -1.151723 6.164005 0 0 0
0.143116 -0.272968 6.708113 0 0 0
1.329800 0.478311 6.206462 0 0 0
1.142928 0.166379 1.940875 0 0 0
1.696597 -0.775294 4.803471 0 0 0
0.000000 0.000000 0.000000 0 0 0
